# .PCD v0.7 - Point Cloud Data file format
VERSION 0.7
FIELDS x y z rgba
SIZE 4 4 4 4
TYPE F F F U
COUNT 1 1 1 1
WIDTH 1090
HEIGHT 1
VIEWPOINT 0 0 0 1 0 0 0
POINTS 1090
DATA ascii
-0.074957147 -0.027206667 0.583 4732698
-0.073593333 -0.027113335 0.58100003 4469795
-0.072361909 -0.027066668 0.58000004 5061421
-0.071257152 -0.027066668 0.58000004 5656362
-0.070152387 -0.027066668 0.58000004 5259815
-0.068928577 -0.027020002 0.57900006 4863533
-0.067825727 -0.027020002 0.57900006 4732980
-0.06626191 -0.026833337 0.57500005 4536881
-0.065053329 -0.026786666 0.574 5129262
-0.063625723 -0.026646668 0.57100004 5787434
-0.062428575 -0.026600001 0.57000005 5260583
-0.061342862 -0.026600001 0.57000005 4799276
-0.060257148 -0.026600001 0.57000005 5061682
-0.059171431 -0.026600001 0.57000005 5324334
-0.058085717 -0.026600001 0.57000005 5194027
-0.056700002 -0.026460001 0.56700003 4998446
-0.055521909 -0.026413336 0.56600004 5194802
-0.054443814 -0.026413336 0.56600004 5391405
-0.053271428 -0.026366666 0.565 5522217
-0.052195236 -0.026366666 0.565 5653038
-0.051028572 -0.026319999 0.56400001 5587763
-0.049865715 -0.026273334 0.56300002 5522484
-0.048793335 -0.026273334 0.56300002 5456182
-0.047720954 -0.026273334 0.56300002 5390130
-0.046648573 -0.026273334 0.56300002 5259311
-0.045495242 -0.026226668 0.56200004 5128498
-0.044424765 -0.026226668 0.56200004 5521973
-0.043354288 -0.026226668 0.56200004 5915708
-0.042283811 -0.026226668 0.56200004 5850180
-0.041213334 -0.026226668 0.56200004 5784887
-0.040071432 -0.026180001 0.56100005 5784363
-0.039002858 -0.026180001 0.56100005 5718315
-0.038137145 -0.026319999 0.56400001 5653292
-0.036997143 -0.026273334 0.56300002 5654060
-0.035924762 -0.026273334 0.56300002 5785133
-0.034852382 -0.026273334 0.56300002 5981998
-0.033780001 -0.026273334 0.56300002 6244143
-0.03270762 -0.026273334 0.56300002 6506545
-0.031747617 -0.026366666 0.565 6375732
-0.030671427 -0.026366666 0.565 6244912
-0.029700002 -0.026460001 0.56700003 6179373
-0.028569527 -0.026413336 0.56600004 6048301
-0.027442858 -0.026366666 0.565 6244909
-0.026366666 -0.026366666 0.565 6441519
-0.025290476 -0.026366666 0.565 6375729
-0.024214284 -0.026366666 0.565 6309934
-0.023138095 -0.026366666 0.565 6179372
-0.022100953 -0.026413336 0.56600004 6048814
-0.021022858 -0.026413336 0.56600004 6245425
-0.019980002 -0.026460001 0.56700003 6507831
-0.018900001 -0.026460001 0.56700003 6836541
-0.017788572 -0.026413336 0.56600004 7165493
-0.016710477 -0.026413336 0.56600004 6509102
-0.015632382 -0.026413336 0.56600004 5918269
-0.014580001 -0.026460001 0.56700003 3814476
-0.013500001 -0.026460001 0.56700003 1710926
-0.012420001 -0.026460001 0.56700003 1778257
-0.01156 -0.026973333 0.57800001 1909329
-0.010459048 -0.026973333 0.57800001 1581393
-0.009358095 -0.026973333 0.57800001 1318994
-0.0082571432 -0.026973333 0.57800001 1384788
-0.0071809529 -0.027066668 0.58000004 1515860
-0.0060761911 -0.027066668 0.58000004 1515604
-0.0049714288 -0.027066668 0.58000004 1515604
-0.082600005 -0.026409525 0.59000003 4402212
-0.081200004 -0.026319999 0.588 4466718
-0.079535246 -0.026140954 0.58400005 3679511
-0.078422867 -0.026140954 0.58400005 2893853
-0.077310488 -0.026140954 0.58400005 3681315
-0.076067619 -0.026096191 0.583 4466971
-0.074957147 -0.026096191 0.583 3941907
-0.073720008 -0.026051428 0.58200002 3485209
-0.072486676 -0.026006667 0.58100003 4077343
-0.071380004 -0.026006667 0.58100003 4728858
-0.070152387 -0.025961906 0.58000004 4397589
-0.069047622 -0.025961906 0.58000004 4070683
-0.067825727 -0.025917146 0.57900006 3678498
-0.06626191 -0.025738096 0.57500005 3351585
-0.065053329 -0.025693333 0.574 4073248
-0.06384857 -0.025648572 0.57300001 4793370
-0.062538095 -0.025559049 0.57100004 4268564
-0.061450478 -0.025559049 0.57100004 3811872
-0.060362861 -0.025559049 0.57100004 4403756
-0.059171431 -0.025514288 0.57000005 4996642
-0.058085717 -0.025514288 0.57000005 4664855
-0.056800004 -0.025424764 0.56800002 4337696
-0.055620003 -0.025380002 0.56700003 4665897
-0.054443814 -0.025335239 0.56600004 4997412
-0.053271428 -0.025290476 0.565 5191968
-0.052287623 -0.025335239 0.56600004 5453606
-0.051119048 -0.025290476 0.565 5322029
-0.049954284 -0.025245715 0.56400001 5256493
-0.04888 -0.025245715 0.56400001 5125422
-0.047805712 -0.025245715 0.56400001 4993571
-0.046648573 -0.025200952 0.56300002 4730904
-0.045576192 -0.025200952 0.56300002 4469533
-0.044503808 -0.025200952 0.56300002 5060131
-0.043431427 -0.025200952 0.56300002 5715753
-0.042359047 -0.025200952 0.56300002 5388591
-0.041213334 -0.025156192 0.56200004 5060132
-0.040142857 -0.025156192 0.56200004 5255961
-0.039072383 -0.025156192 0.56200004 5518363
-0.038137145 -0.025245715 0.56400001 5387805
-0.036997143 -0.025200952 0.56300002 5256737
-0.035924762 -0.025200952 0.56300002 5453605
-0.034852382 -0.025200952 0.56300002 5717032
-0.033840001 -0.025245715 0.56400001 6045994
-0.032765713 -0.025245715 0.56400001 6439210
-0.031691428 -0.025245715 0.56400001 6242601
-0.030671427 -0.025290476 0.565 6111521
-0.029647622 -0.025335239 0.56600004 5915161
-0.028569527 -0.025335239 0.56600004 5784094
-0.027442858 -0.025290476 0.565 6112035
-0.026413336 -0.025335239 0.56600004 6506539
-0.025335239 -0.025335239 0.56600004 6309938
-0.024257144 -0.025335239 0.56600004 6178608
-0.023179049 -0.025335239 0.56600004 5915951
-0.022140002 -0.025380002 0.56700003 5653544
-0.021060001 -0.025380002 0.56700003 5980962
-0.019980002 -0.025380002 0.56700003 6374696
-0.018933333 -0.025424764 0.56800002 6834223
-0.017820001 -0.025380002 0.56700003 7292460
-0.016769523 -0.025424764 0.56800002 5850409
-0.015687618 -0.025424764 0.56800002 4405563
-0.014605715 -0.025424764 0.56800002 2756429
-0.013571429 -0.025514288 0.57000005 1186895
-0.012485716 -0.025514288 0.57000005 1385041
-0.01154 -0.02582762 0.57700002 1581648
-0.010440952 -0.02582762 0.57700002 1385296
-0.0093419049 -0.02582762 0.57700002 1253713
-0.0082428576 -0.02582762 0.57700002 1384786
-0.0071809529 -0.025961906 0.58000004 1515858
-0.0060761911 -0.025961906 0.58000004 1515858
-0.079399049 -0.024985714 0.583 5452033
-0.07828857 -0.024985714 0.583 4917770
-0.077310488 -0.025028573 0.58400005 5909268
-0.076067619 -0.024985714 0.583 6966288
-0.074957147 -0.024985714 0.583 6436108
-0.073720008 -0.024942858 0.58200002 5905934
-0.072611429 -0.024942858 0.58200002 6169873
-0.071257152 -0.024857145 0.58000004 6434058
-0.070031434 -0.024814287 0.57900006 6299907
-0.068928577 -0.024814287 0.57900006 6165770
-0.067708574 -0.024771428 0.57800001 6034449
-0.06626191 -0.024642859 0.57500005 5837585
-0.065053329 -0.024599999 0.574 6234642
-0.06384857 -0.024557142 0.57300001 6697481
-0.062647626 -0.024514288 0.57200003 6432001
-0.061558098 -0.024514288 0.57200003 6166548
-0.060362861 -0.02447143 0.57100004 6761255
-0.059275243 -0.02447143 0.57100004 7290645
-0.058187623 -0.02447143 0.57100004 6759940
-0.057000004 -0.024428573 0.57000005 6169618
-0.055620003 -0.024300002 0.56700003 6828321
-0.054540001 -0.024300002 0.56700003 7487004
-0.053365719 -0.024257144 0.56600004 7096343
-0.052287623 -0.024257144 0.56600004 6705951
-0.051119048 -0.024214284 0.565 6570023
-0.050042856 -0.024214284 0.565 6434854
-0.04888 -0.024171429 0.56400001 6500134
-0.047805712 -0.024171429 0.56400001 6631188
-0.046648573 -0.024128573 0.56300002 6367234
-0.045576192 -0.024128573 0.56300002 6103561
-0.044503808 -0.024128573 0.56300002 5974801
-0.043431427 -0.024128573 0.56300002 5846038
-0.042359047 -0.024128573 0.56300002 5845019
-0.041213334 -0.024085715 0.56200004 5843985
-0.040142857 -0.024085715 0.56200004 5515015
-0.039072383 -0.024085715 0.56200004 5251594
-0.038137145 -0.024171429 0.56400001 6039310
-0.037062857 -0.024171429 0.56400001 6827286
-0.035988573 -0.024171429 0.56400001 6829086
-0.034914285 -0.024171429 0.56400001 6896674
-0.033840001 -0.024171429 0.56400001 6766630
-0.032765713 -0.024171429 0.56400001 6636834
-0.031747617 -0.024214284 0.565 6374175
-0.030671427 -0.024214284 0.565 6041362
-0.029647622 -0.024257144 0.56600004 5321734
-0.028569527 -0.024257144 0.56600004 4667664
-0.027491432 -0.024257144 0.56600004 5455898
-0.026413336 -0.024257144 0.56600004 6309671
-0.025335239 -0.024257144 0.56600004 6047540
-0.024257144 -0.024257144 0.56600004 5785395
-0.023179049 -0.024257144 0.56600004 5588018
-0.022100953 -0.024257144 0.56600004 5456162
-0.021022858 -0.024257144 0.56600004 5586451
-0.019980002 -0.024300002 0.56700003 5782554
-0.018900001 -0.024300002 0.56700003 6636834
-0.017851429 -0.024342857 0.56800002 7491107
-0.016799048 -0.024385713 0.56900001 6773028
-0.015715238 -0.024385713 0.56900001 6038585
-0.014657144 -0.024428573 0.57000005 3416399
-0.013619049 -0.024514288 0.57200003 859728
-0.012529524 -0.024514288 0.57200003 1188178
-0.01148 -0.024599999 0.574 1581648
-0.010404763 -0.024642859 0.57500005 1450575
-0.0093257148 -0.024685716 0.57600003 1385040
-0.0082285721 -0.024685716 0.57600003 1450321
-0.0071314289 -0.024685716 0.57600003 1450577
-0.0060447617 -0.024728572 0.57700002 1384785
-0.0049457145 -0.024728572 0.57700002 1318994
-0.079399049 -0.023875238 0.583 7224879
-0.07828857 -0.023875238 0.583 7035962
-0.076198101 -0.023916192 0.58400005 9465922
-0.074957147 -0.023875238 0.583 8939072
-0.073720008 -0.023834286 0.58200002 8414272
-0.072611429 -0.023834286 0.58200002 8282945
-0.071257152 -0.023752384 0.58000004 8218429
-0.070031434 -0.023711432 0.57900006 8284985
-0.068928577 -0.023711432 0.57900006 8347195
-0.067708574 -0.023670476 0.57800001 8343868
-0.066377148 -0.023588574 0.57600003 8413761
-0.065166667 -0.023547621 0.57500005 8483910
-0.063959993 -0.023506666 0.574 8610370
-0.062647626 -0.023424761 0.57200003 8606014
-0.061558098 -0.023424761 0.57200003 8614220
-0.060468573 -0.023424761 0.57200003 9146715
-0.059275243 -0.023383811 0.57100004 9660740
-0.058187623 -0.023383811 0.57100004 8855085
-0.057000004 -0.023342859 0.57000005 8082238
-0.055816192 -0.023301905 0.56900001 9078863
-0.054540001 -0.023220001 0.56700003 10058822
-0.053365719 -0.023179049 0.56600004 9007165
-0.052287623 -0.023179049 0.56600004 7953729
-0.051119048 -0.023138095 0.565 7818054
-0.050042856 -0.023138095 0.565 7692617
-0.048966669 -0.023138095 0.565 7960397
-0.047890477 -0.023138095 0.565 8284218
-0.046731427 -0.023097143 0.56400001 8018471
-0.045657143 -0.023097143 0.56400001 7748907
-0.044503808 -0.023056192 0.56300002 6823983
-0.043431427 -0.023056192 0.56300002 5977392
-0.042359047 -0.023056192 0.56300002 6310449
-0.041213334 -0.02301524 0.56200004 6694444
-0.040142857 -0.02301524 0.56200004 5833512
-0.039072383 -0.02301524 0.56200004 4986149
-0.03800191 -0.02301524 0.56200004 6694946
-0.036997143 -0.023056192 0.56300002 8473401
-0.035988573 -0.023097143 0.56400001 8286032
-0.034914285 -0.023097143 0.56400001 8086336
-0.033840001 -0.023097143 0.56400001 7493680
-0.032765713 -0.023097143 0.56400001 6901301
-0.031691428 -0.023097143 0.56400001 6440250
-0.030617142 -0.023097143 0.56400001 6038302
-0.029647622 -0.023179049 0.56600004 4784387
-0.028569527 -0.023179049 0.56600004 3556896
-0.027491432 -0.023179049 0.56600004 4805438
-0.026413336 -0.023179049 0.56600004 6113081
-0.025335239 -0.023179049 0.56600004 5716788
-0.024257144 -0.023179049 0.56600004 5392429
-0.023179049 -0.023179049 0.56600004 5317670
-0.022100953 -0.023179049 0.56600004 5253656
-0.021060001 -0.023220001 0.56700003 5255179
-0.019980002 -0.023220001 0.56700003 5261867
-0.018966667 -0.023301905 0.56900001 6446668
-0.017882857 -0.023301905 0.56900001 7693901
-0.016828572 -0.023342859 0.57000005 7695950
-0.015742857 -0.023342859 0.57000005 7686475
-0.014682857 -0.023383811 0.57100004 4072775
-0.013619049 -0.023424761 0.57200003 533068
-0.012573333 -0.023506666 0.574 1056850
-0.011500001 -0.023547621 0.57500005 1581393
-0.010404763 -0.023547621 0.57500005 1581649
-0.0093257148 -0.023588574 0.57600003 1581392
-0.0082428576 -0.023629524 0.57700002 1515856
-0.0071438099 -0.023629524 0.57700002 1450321
-0.0060447617 -0.023629524 0.57700002 1254482
-0.0049457145 -0.023629524 0.57700002 1122130
-0.076198101 -0.022803811 0.58400005 9407093
-0.074957147 -0.022764761 0.583 9276020
-0.073846668 -0.022764761 0.583 9210738
-0.072736189 -0.022764761 0.583 9143409
-0.070031434 -0.022608573 0.57900006 9078384
-0.068928577 -0.022608573 0.57900006 9080428
-0.067708574 -0.022569524 0.57800001 9212776
-0.066377148 -0.022491429 0.57600003 9345137
-0.065166667 -0.022452382 0.57500005 9410427
-0.064071439 -0.022452382 0.57500005 9541243
-0.062647626 -0.022335239 0.57200003 9543292
-0.061558098 -0.022335239 0.57200003 9545605
-0.060468573 -0.022335239 0.57200003 9802127
-0.059275243 -0.022296192 0.57100004 10130546
-0.058187623 -0.022296192 0.57100004 9803862
-0.057000004 -0.022257145 0.57000005 9542762
-0.05591429 -0.022257145 0.57000005 10001790
-0.054540001 -0.022140002 0.56700003 10461040
-0.053365719 -0.022100953 0.56600004 9866851
-0.052287623 -0.022100953 0.56600004 9338468
-0.051209528 -0.022100953 0.56600004 9208933
-0.050042856 -0.022061903 0.565 9144940
-0.048966669 -0.022061903 0.565 9278068
-0.047890477 -0.022061903 0.565 9476704
-0.046814285 -0.022061903 0.565 9341773
-0.045657143 -0.022022858 0.56400001 9141325
-0.044582859 -0.022022858 0.56400001 8548174
-0.043431427 -0.02198381 0.56300002 7955019
-0.042359047 -0.02198381 0.56300002 8286536
-0.041213334 -0.021944763 0.56200004 8552776
-0.040142857 -0.021944763 0.56200004 8090441
-0.039072383 -0.021944763 0.56200004 7693632
-0.03800191 -0.021944763 0.56200004 8684087
-0.036997143 -0.02198381 0.56300002 9674845
-0.035924762 -0.02198381 0.56300002 9475971
-0.034914285 -0.022022858 0.56400001 9277023
-0.033840001 -0.022022858 0.56400001 8946491
-0.032765713 -0.022022858 0.56400001 8616008
-0.031691428 -0.022022858 0.56400001 8551509
-0.030671427 -0.022061903 0.565 8421419
-0.029595239 -0.022061903 0.565 7498241
-0.028569527 -0.022100953 0.56600004 6640689
-0.027491432 -0.022100953 0.56600004 7695202
-0.026413336 -0.022100953 0.56600004 8815435
-0.025380002 -0.022140002 0.56700003 8414772
-0.024300002 -0.022140002 0.56700003 8079911
-0.023260953 -0.022179047 0.56800002 8016154
-0.022179047 -0.022179047 0.56800002 7952655
-0.021134285 -0.022218095 0.56900001 7821316
-0.020050475 -0.022218095 0.56900001 7690301
-0.019000003 -0.022257145 0.57000005 8747126
-0.017914288 -0.022257145 0.57000005 9869431
-0.016828572 -0.022257145 0.57000005 9277049
-0.015770478 -0.022296192 0.57100004 8750428
-0.014708571 -0.022335239 0.57200003 4463424
-0.013642858 -0.022374285 0.57300001 265545
-0.012573333 -0.022413334 0.574 860242
-0.011500001 -0.022452382 0.57500005 1515602
-0.010422857 -0.022491429 0.57600003 1450067
-0.0093257148 -0.022491429 0.57600003 1450065
-0.0082428576 -0.022530477 0.57700002 1450064
-0.0071438099 -0.022530477 0.57700002 1450322
-0.074957147 -0.021654285 0.583 9667955
-0.073846668 -0.021654285 0.583 9997427
-0.072736189 -0.021654285 0.583 9931380
-0.065053329 -0.02132 0.574 10326911
-0.063959993 -0.02132 0.574 10458495
-0.062647626 -0.021245714 0.57200003 10459007
-0.061665714 -0.021282857 0.57300001 10458246
-0.060468573 -0.021245714 0.57200003 10523021
-0.059275243 -0.021208571 0.57100004 10589056
-0.058187623 -0.021208571 0.57100004 10787443
-0.057000004 -0.02117143 0.57000005 10983801
-0.055816192 -0.021134285 0.56900001 10918271
-0.054540001 -0.021060001 0.56700003 10853754
-0.053460002 -0.021060001 0.56700003 10785654
-0.052287623 -0.021022858 0.56600004 10720631
-0.051209528 -0.021022858 0.56600004 10655609
-0.050042856 -0.020985713 0.565 10590332
-0.048966669 -0.020985713 0.565 10656127
-0.047890477 -0.020985713 0.565 10720884
-0.046814285 -0.020985713 0.565 10654825
-0.045738097 -0.020985713 0.565 10585961
-0.044582859 -0.020948572 0.56400001 10254697
-0.043508574 -0.020948572 0.56400001 9996650
-0.042359047 -0.020911429 0.56300002 10197355
-0.04128667 -0.020911429 0.56300002 10457451
-0.040214289 -0.020911429 0.56300002 10390124
-0.039072383 -0.020874286 0.56200004 10391656
-0.03800191 -0.020874286 0.56200004 10589797
-0.036931433 -0.020874286 0.56200004 10852211
-0.035924762 -0.020911429 0.56300002 10656128
-0.034914285 -0.020948572 0.56400001 10522992
-0.033840001 -0.020948572 0.56400001 10455649
-0.032765713 -0.020948572 0.56400001 10391910
-0.031691428 -0.020948572 0.56400001 10590571
-0.030671427 -0.020985713 0.565 10850393
-0.029647622 -0.021022858 0.56600004 10258246
-0.028569527 -0.021022858 0.56600004 9737824
-0.027491432 -0.021022858 0.56600004 10593915
-0.026413336 -0.021022858 0.56600004 11508591
-0.025380002 -0.021060001 0.56700003 11178340
-0.024300002 -0.021060001 0.56700003 10850654
-0.023260953 -0.021097142 0.56800002 10785367
-0.022218095 -0.021134285 0.56900001 10718288
-0.021134285 -0.021134285 0.56900001 10389065
-0.020050475 -0.021134285 0.56900001 10130534
-0.019000003 -0.02117143 0.57000005 11117187
-0.017945714 -0.021208571 0.57100004 12101765
-0.016828572 -0.02117143 0.57000005 10923911
-0.015770478 -0.021208571 0.57100004 9796705
-0.014734286 -0.021282857 0.57300001 4919866
-0.013666667 -0.02132 0.574 68166
-0.012573333 -0.02132 0.574 729171
-0.011500001 -0.021357143 0.57500005 1449811
-0.010422857 -0.021394286 0.57600003 1384019
-0.0093095247 -0.021357143 0.57500005 1318737
-0.0082285721 -0.021394286 0.57600003 1384527
-0.0071314289 -0.021394286 0.57600003 1450065
-0.065166667 -0.020261906 0.57500005 10326659
-0.064071439 -0.020261906 0.57500005 10457474
-0.062757149 -0.020191429 0.57300001 10391426
-0.061665714 -0.020191429 0.57300001 10391175
-0.060468573 -0.020156192 0.57200003 10522764
-0.059379049 -0.020156192 0.57200003 10589070
-0.058187623 -0.020120952 0.57100004 10853520
-0.056899998 -0.020050475 0.56900001 11051400
-0.055718098 -0.020015238 0.56800002 10984833
-0.054540001 -0.019980002 0.56700003 10919045
-0.053365719 -0.019944763 0.56600004 10918793
-0.052287623 -0.019944763 0.56600004 10984075
-0.051119048 -0.019909523 0.565 10786701
-0.050042856 -0.019909523 0.565 10523787
-0.048966669 -0.019909523 0.565 10589066
-0.047890477 -0.019909523 0.565 10589064
-0.046814285 -0.019909523 0.565 10654342
-0.045738097 -0.019909523 0.565 10654341
-0.044661906 -0.019909523 0.565 10392453
-0.043508574 -0.019874286 0.56400001 10130569
-0.042359047 -0.019839048 0.56300002 10196878
-0.04128667 -0.019839048 0.56300002 10328462
-0.040214289 -0.019839048 0.56300002 10325391
-0.039141908 -0.019839048 0.56300002 10325649
-0.03800191 -0.019803809 0.56200004 10459540
-0.036931433 -0.019803809 0.56200004 10655625
-0.035988573 -0.019874286 0.56400001 10589566
-0.034976188 -0.019909523 0.565 10523778
-0.0339 -0.019909523 0.565 10457991
-0.032823808 -0.019909523 0.565 10457732
-0.031747617 -0.019909523 0.565 10656130
-0.030725716 -0.019944763 0.56600004 10853767
-0.029647622 -0.019944763 0.56600004 10656396
-0.028569527 -0.019944763 0.56600004 10524816
-0.027491432 -0.019944763 0.56600004 10855572
-0.026413336 -0.019944763 0.56600004 11249300
-0.025335239 -0.019944763 0.56600004 11051669
-0.024300002 -0.019980002 0.56700003 10919829
-0.023220001 -0.019980002 0.56700003 11052181
-0.022179047 -0.020015238 0.56800002 11250066
-0.021134285 -0.020050475 0.56900001 10987151
-0.020050475 -0.020050475 0.56900001 10789775
-0.019000003 -0.020085717 0.57000005 11379088
-0.017914288 -0.020085717 0.57000005 11905939
-0.016828572 -0.020085717 0.57000005 10660758
-0.015742857 -0.020085717 0.57000005 9335653
-0.014708571 -0.020156192 0.57200003 4656181
-0.013642858 -0.020191429 0.57300001 67396
-0.012573333 -0.020226667 0.574 793940
-0.011500001 -0.020261906 0.57500005 1579859
-0.010404763 -0.020261906 0.57500005 1449555
-0.0093095247 -0.020261906 0.57500005 1318481
-0.0082142865 -0.020261906 0.57500005 1253199
-0.0071190479 -0.020261906 0.57500005 1253456
-0.066492379 -0.019233335 0.57700002 10195591
-0.065280005 -0.019200001 0.57600003 10326665
-0.064071439 -0.019166669 0.57500005 10457478
-0.062757149 -0.019099999 0.57300001 10391940
-0.061665714 -0.019099999 0.57300001 10392198
-0.060574286 -0.019099999 0.57300001 10526089
-0.059379049 -0.019066667 0.57200003 10657165
-0.058187623 -0.019033333 0.57100004 10919570
-0.057000004 -0.019000003 0.57000005 11181709
-0.055816192 -0.018966667 0.56900001 11050632
-0.054732382 -0.018966667 0.56900001 10984586
-0.053460002 -0.018900001 0.56700003 11115660
-0.052287623 -0.018866668 0.56600004 11312528
-0.051209528 -0.018866668 0.56600004 10919572
-0.050042856 -0.018833334 0.565 10524558
-0.048966669 -0.018833334 0.565 10524553
-0.047890477 -0.018833334 0.565 10523783
-0.046814285 -0.018833334 0.565 10654342
-0.045738097 -0.018833334 0.565 10785414
-0.044661906 -0.018833334 0.565 10523270
-0.043585714 -0.018833334 0.565 10261385
-0.042434286 -0.0188 0.56400001 10261901
-0.04128667 -0.018766666 0.56300002 10261133
-0.040214289 -0.018766666 0.56300002 10260621
-0.039141908 -0.018766666 0.56300002 10327697
-0.038069528 -0.018766666 0.56300002 10395030
-0.036997143 -0.018766666 0.56300002 10459019
-0.035988573 -0.0188 0.56400001 10457728
-0.034976188 -0.018833334 0.565 10523523
-0.0339 -0.018833334 0.565 10523782
-0.032823808 -0.018833334 0.565 10524293
-0.031747617 -0.018833334 0.565 10656133
-0.030671427 -0.018833334 0.565 10853512
-0.029595239 -0.018833334 0.565 11115404
-0.028569527 -0.018866668 0.56600004 11377551
-0.027442858 -0.018833334 0.565 11182737
-0.026366666 -0.018833334 0.565 10985362
-0.025290476 -0.018833334 0.565 10984852
-0.024214284 -0.018833334 0.565 11051155
-0.023179049 -0.018866668 0.56600004 11380370
-0.022100953 -0.018866668 0.56600004 11774353
-0.021060001 -0.018900001 0.56700003 11641231
-0.020050475 -0.018966667 0.56900001 11509903
-0.019000003 -0.019000003 0.57000005 11640975
-0.017914288 -0.019000003 0.57000005 11774608
-0.016858097 -0.019033333 0.57100004 10332050
-0.015770478 -0.019033333 0.57100004 8941667
-0.014734286 -0.019099999 0.57300001 4458293
-0.013666667 -0.019133333 0.574 67140
-0.012573333 -0.019133333 0.574 858964
-0.011500001 -0.019166669 0.57500005 1711699
-0.010422857 -0.019200001 0.57600003 1515858
-0.0093257148 -0.019200001 0.57600003 1384273
-0.0082285721 -0.019200001 0.57600003 1187408
-0.0071190479 -0.019166669 0.57500005 1056593
-0.067708574 -0.018165713 0.57800001 10065540
-0.066492379 -0.018134287 0.57700002 10262665
-0.065280005 -0.018102858 0.57600003 10523535
-0.064071439 -0.01807143 0.57500005 10785162
-0.062976196 -0.01807143 0.57500005 10654854
-0.061665714 -0.018008571 0.57300001 10524550
-0.060574286 -0.018008571 0.57300001 10590599
-0.059379049 -0.017977145 0.57200003 10591117
-0.058289524 -0.017977145 0.57200003 11115412
-0.057100005 -0.017945714 0.57100004 11574162
-0.056012385 -0.017945714 0.57100004 11378064
-0.054828573 -0.017914288 0.57000005 11181455
-0.053554289 -0.017851429 0.56800002 11247503
-0.052380003 -0.017820001 0.56700003 11313813
-0.051209528 -0.017788572 0.56600004 10985628
-0.050131433 -0.017788572 0.56600004 10656402
-0.048966669 -0.017757144 0.565 10590344
-0.047890477 -0.017757144 0.565 10458759
-0.046814285 -0.017757144 0.565 10917511
-0.045738097 -0.017757144 0.565 11376263
-0.044661906 -0.017757144 0.565 10851207
-0.043508574 -0.017725714 0.56400001 10391945
-0.042434286 -0.017725714 0.56400001 10260876
-0.04128667 -0.017694285 0.56300002 10129803
-0.040214289 -0.017694285 0.56300002 10131339
-0.039141908 -0.017694285 0.56300002 10198418
-0.038069528 -0.017694285 0.56300002 10328985
-0.036997143 -0.017694285 0.56300002 10524558
-0.03605238 -0.017757144 0.565 10590083
-0.034976188 -0.017757144 0.565 10721156
-0.0339 -0.017757144 0.565 10721158
-0.032823808 -0.017757144 0.565 10786951
-0.031747617 -0.017757144 0.565 10918536
-0.030671427 -0.017757144 0.565 11115658
-0.029595239 -0.017757144 0.565 11312525
-0.028519047 -0.017757144 0.565 11574926
-0.027442858 -0.017757144 0.565 11312527
-0.026366666 -0.017757144 0.565 11050129
-0.025290476 -0.017757144 0.565 11050643
-0.024214284 -0.017757144 0.565 10985873
-0.023138095 -0.017757144 0.565 11511440
-0.022100953 -0.017788572 0.56600004 12036752
-0.021060001 -0.017820001 0.56700003 11708048
-0.020050475 -0.017882857 0.56900001 11377807
-0.018966667 -0.017882857 0.56900001 11641486
-0.017914288 -0.017914288 0.57000005 11970958
-0.016858097 -0.017945714 0.57100004 10397838
-0.015798096 -0.017977145 0.57200003 8809825
-0.014734286 -0.018008571 0.57300001 4391989
-0.013666667 -0.01804 0.574 67140
-0.012573333 -0.01804 0.574 793940
-0.011500001 -0.01807143 0.57500005 1581651
-0.010422857 -0.018102858 0.57600003 1516114
-0.0093257148 -0.018102858 0.57600003 1385041
-0.0082285721 -0.018102858 0.57600003 1253201
-0.067708574 -0.017064763 0.57800001 10132105
-0.066492379 -0.017035238 0.57700002 10393484
-0.065393336 -0.017035238 0.57700002 10720655
-0.064182863 -0.017005716 0.57600003 11114380
-0.062976196 -0.016976191 0.57500005 10918282
-0.061773334 -0.016946668 0.574 10720394
-0.060679998 -0.016946668 0.574 10654347
-0.059482858 -0.016917143 0.57300001 10589075
-0.058391429 -0.016917143 0.57300001 11314844
-0.057100005 -0.016858097 0.57100004 12034969
-0.056012385 -0.016858097 0.57100004 11706519
-0.054732382 -0.016799048 0.56900001 11444373
-0.053648572 -0.016799048 0.56900001 11379091
-0.052472383 -0.016769523 0.56800002 11379608
-0.0513 -0.016740002 0.56700003 11118237
-0.050220001 -0.016740002 0.56700003 10851221
-0.049053337 -0.016710477 0.56600004 10653838
-0.047890477 -0.016680952 0.565 10458252
-0.046814285 -0.016680952 0.565 11180171
-0.045738097 -0.016680952 0.565 11967117
-0.044661906 -0.016680952 0.565 11246736
-0.043585714 -0.016680952 0.565 10589324
-0.042434286 -0.016651429 0.56400001 10261641
-0.041360002 -0.016651429 0.56400001 9998984
-0.040214289 -0.016621906 0.56300002 10060680
-0.039141908 -0.016621906 0.56300002 10130830
-0.038137145 -0.016651429 0.56400001 10328469
-0.037062857 -0.016651429 0.56400001 10590608
-0.03605238 -0.016680952 0.565 10721676
-0.034976188 -0.016680952 0.565 10918798
-0.0339 -0.016680952 0.565 10984848
-0.032823808 -0.016680952 0.565 11116429
-0.031803809 -0.016710477 0.56600004 11248267
-0.030671427 -0.016680952 0.565 11379081
-0.029595239 -0.016680952 0.565 11575432
-0.028519047 -0.016680952 0.565 11772043
-0.027442858 -0.016680952 0.565 11442061
-0.026366666 -0.016680952 0.565 11180688
-0.025290476 -0.016680952 0.565 11050900
-0.024214284 -0.016680952 0.565 10985877
-0.023179049 -0.016710477 0.56600004 11642519
-0.022100953 -0.016710477 0.56600004 12298647
-0.02117143 -0.016828572 0.57000005 11775128
-0.020085717 -0.016828572 0.57000005 11249815
-0.019000003 -0.016828572 0.57000005 11707542
-0.017945714 -0.016858097 0.57100004 12167054
-0.01688762 -0.01688762 0.57200003 10463878
-0.015798096 -0.01688762 0.57200003 8740959
-0.014734286 -0.016917143 0.57300001 4391224
-0.013666667 -0.016946668 0.574 68165
-0.012595239 -0.016976191 0.57500005 794706
-0.01152 -0.017005716 0.57600003 1515857
-0.010422857 -0.017005716 0.57600003 1450576
-0.0093257148 -0.017005716 0.57600003 1450319
-0.0082285721 -0.017005716 0.57600003 1319247
-0.067825727 -0.015991431 0.57900006 9210510
-0.066607624 -0.01596381 0.57800001 9209999
-0.065393336 -0.01593619 0.57700002 9343888
-0.064182863 -0.015908571 0.57600003 9478031
-0.062976196 -0.015880954 0.57500005 9475982
-0.061773334 -0.015853332 0.574 9408655
-0.060679998 -0.015853332 0.574 9473424
-0.059586667 -0.015853332 0.574 9538458
-0.058391429 -0.015825715 0.57300001 10199204
-0.0572 -0.015798096 0.57200003 10859425
-0.056012385 -0.015770478 0.57100004 10526366
-0.054828573 -0.015742857 0.57000005 10265755
-0.05374286 -0.015742857 0.57000005 9870232
-0.052564763 -0.015715238 0.56900001 9540251
-0.05139048 -0.015687618 0.56800002 9473950
-0.050220001 -0.015660001 0.56700003 9407641
-0.049053337 -0.015632382 0.56600004 9604244
-0.047975242 -0.015632382 0.56600004 9800850
-0.046814285 -0.015604762 0.565 10324880
-0.045738097 -0.015604762 0.565 10857108
-0.044661906 -0.015604762 0.565 10591641
-0.043585714 -0.015604762 0.565 10393488
-0.042509522 -0.015604762 0.565 10130823
-0.041360002 -0.015577144 0.56400001 9933702
-0.040285714 -0.015577144 0.56400001 9932933
-0.03921143 -0.015577144 0.56400001 9997707
-0.038137145 -0.015577144 0.56400001 9998738
-0.037128571 -0.015604762 0.565 10000019
-0.036116194 -0.015632382 0.56600004 10329493
-0.035038099 -0.015632382 0.56600004 10593687
-0.03396 -0.015632382 0.56600004 10591898
-0.032881904 -0.015632382 0.56600004 10658196
-0.031803809 -0.015632382 0.56600004 10593166
-0.030725716 -0.015632382 0.56600004 10528137
-0.029595239 -0.015604762 0.565 11117700
-0.028519047 -0.015604762 0.565 11772808
-0.027442858 -0.015604762 0.565 11509388
-0.026366666 -0.015604762 0.565 11311504
-0.025290476 -0.015604762 0.565 11181205
-0.024214284 -0.015604762 0.565 11051417
-0.023179049 -0.015632382 0.56600004 11512734
-0.022257145 -0.015742857 0.57000005 11973023
-0.021208571 -0.015770478 0.57100004 11645089
-0.020085717 -0.015742857 0.57000005 11382687
-0.019033333 -0.015770478 0.57100004 11186334
-0.017977145 -0.015798096 0.57200003 10990222
-0.016917143 -0.015825715 0.57300001 8819071
-0.015825715 -0.015825715 0.57300001 6706013
-0.01476 -0.015853332 0.574 3474747
-0.013666667 -0.015853332 0.574 331334
-0.012595239 -0.015880954 0.57500005 860241
-0.01152 -0.015908571 0.57600003 1450063
-0.010422857 -0.015908571 0.57600003 1385038
-0.0093257148 -0.015908571 0.57600003 1384269
-0.0082285721 -0.015908571 0.57600003 1318733
-0.0071314289 -0.015908571 0.57600003 1253197
-0.070031434 -0.014888573 0.57900006 8294262
-0.068928577 -0.014888573 0.57900006 8422518
-0.067708574 -0.014862857 0.57800001 8223094
-0.066607624 -0.014862857 0.57800001 8090996
-0.065393336 -0.014837143 0.57700002 7958898
-0.064182863 -0.014811429 0.57600003 7892336
-0.062976196 -0.014785715 0.57500005 8022383
-0.061773334 -0.01476 0.574 8154480
-0.060679998 -0.01476 0.574 8286578
-0.059586667 -0.01476 0.574 8488316
-0.058391429 -0.014734286 0.57300001 9083526
-0.0572 -0.014708571 0.57200003 9739146
-0.056012385 -0.014682857 0.57100004 9411982
-0.054828573 -0.014657144 0.57000005 9072502
-0.053648572 -0.014631429 0.56900001 8405599
-0.052564763 -0.014631429 0.56900001 7752805
-0.05139048 -0.014605715 0.56800002 7821164
-0.050220001 -0.014580001 0.56700003 7954804
-0.049140003 -0.014580001 0.56700003 8547196
-0.047975242 -0.014554287 0.56600004 9204860
-0.046814285 -0.014528572 0.565 9469564
-0.045738097 -0.014528572 0.565 9801345
-0.044661906 -0.014528572 0.565 10002053
-0.043585714 -0.014528572 0.565 10194302
-0.042509522 -0.014528572 0.565 9993591
-0.041433334 -0.014528572 0.565 9865080
-0.040285714 -0.014502858 0.56400001 9867640
-0.03921143 -0.014502858 0.56400001 9931387
-0.038204763 -0.014528572 0.565 9667453
-0.037128571 -0.014528572 0.565 9471107
-0.036116194 -0.014554287 0.56600004 9864584
-0.034976188 -0.014528572 0.565 10326666
-0.03396 -0.014554287 0.56600004 10264717
-0.03294 -0.014580001 0.56700003 10196357
-0.031860001 -0.014580001 0.56700003 9931646
-0.030780001 -0.014580001 0.56700003 9672581
-0.029647622 -0.014554287 0.56600004 10724492
-0.028519047 -0.014528572 0.565 11773581
-0.027442858 -0.014528572 0.565 11643279
-0.026366666 -0.014528572 0.565 11508108
-0.025290476 -0.014528572 0.565 11311754
-0.024214284 -0.014528572 0.565 11118737
-0.023179049 -0.014554287 0.56600004 11384473
-0.022218095 -0.014631429 0.56900001 11644563
-0.021208571 -0.014682857 0.57100004 11576973
-0.020120952 -0.014682857 0.57100004 11575437
-0.019099999 -0.014734286 0.57300001 10656653
-0.01804 -0.01476 0.574 9800319
-0.016946668 -0.01476 0.574 7240049
-0.015853332 -0.01476 0.574 4663896
-0.014785715 -0.014785715 0.57500005 2623807
-0.013690477 -0.014785715 0.57500005 595016
-0.012617144 -0.014811429 0.57600003 991313
-0.01152 -0.014811429 0.57600003 1450319
-0.010422857 -0.014811429 0.57600003 1385038
-0.0093257148 -0.014811429 0.57600003 1318479
-0.0082285721 -0.014811429 0.57600003 1318736
-0.0071314289 -0.014811429 0.57600003 1318735
-0.072237149 -0.013785715 0.57900006 7092305
-0.071134292 -0.013785715 0.57900006 7027550
-0.070031434 -0.013785715 0.57900006 7091308
-0.068928577 -0.013785715 0.57900006 7089765
-0.067708574 -0.013761904 0.57800001 7023454
-0.066607624 -0.013761904 0.57800001 6957401
-0.065393336 -0.013738095 0.57700002 6954325
-0.064182863 -0.013714286 0.57600003 6885714
-0.062976196 -0.013690477 0.57500005 6888528
-0.061773334 -0.013666667 0.574 6891346
-0.060785718 -0.013690477 0.57500005 7089237
-0.059586667 -0.013666667 0.574 7287390
-0.058391429 -0.013642858 0.57300001 7485544
-0.057100005 -0.013595238 0.57100004 7683955
-0.056012385 -0.013595238 0.57100004 7676030
-0.054828573 -0.013571429 0.57000005 7733586
-0.053648572 -0.013547619 0.56900001 7733542
-0.052472383 -0.013523811 0.56800002 7668016
-0.0513 -0.013500001 0.56700003 7734075
-0.050220001 -0.013500001 0.56700003 7800143
-0.049053337 -0.013476192 0.56600004 7871588
-0.047975242 -0.013476192 0.56600004 8008550
-0.046814285 -0.013452381 0.565 8277097
-0.045738097 -0.013452381 0.565 8545901
-0.044661906 -0.013452381 0.565 8744050
-0.043585714 -0.013452381 0.565 8876653
-0.042509522 -0.013452381 0.565 8542568
-0.041433334 -0.013452381 0.565 8274026
-0.040285714 -0.013428572 0.56400001 8077420
-0.03921143 -0.013428572 0.56400001 7946602
-0.038204763 -0.013452381 0.565 7613801
-0.037128571 -0.013452381 0.565 7346802
-0.03605238 -0.013452381 0.565 7550844
-0.035038099 -0.013476192 0.56600004 7754878
-0.03396 -0.013476192 0.56600004 7952768
-0.032881904 -0.013476192 0.56600004 8216183
-0.031860001 -0.013500001 0.56700003 8282734
-0.030780001 -0.013500001 0.56700003 8415105
-0.029647622 -0.013476192 0.56600004 9010069
-0.028519047 -0.013452381 0.565 9670803
-0.027442858 -0.013452381 0.565 9671826
-0.026366666 -0.013452381 0.565 9607561
-0.025335239 -0.013476192 0.56600004 9407104
-0.024257144 -0.013476192 0.56600004 9272202
-0.023220001 -0.013500001 0.56700003 9207956
-0.022218095 -0.013547619 0.56900001 9143686
-0.02117143 -0.013571429 0.57000005 9010553
-0.020120952 -0.013595238 0.57100004 8877434
-0.019099999 -0.013642858 0.57300001 8084604
-0.018008571 -0.013642858 0.57300001 7291759
-0.016946668 -0.013666667 0.574 5186147
-0.015853332 -0.013666667 0.574 3080787
-0.01476 -0.013666667 0.574 1969987
-0.013690477 -0.013690477 0.57500005 924490
-0.012660953 -0.013761904 0.57800001 1188177
-0.01154 -0.013738095 0.57700002 1450575
-0.010440952 -0.013738095 0.57700002 1385038
-0.0093419049 -0.013738095 0.57700002 1318480
-0.0082428576 -0.013738095 0.57700002 1318483
-0.0071438099 -0.013738095 0.57700002 1318481
-0.072237149 -0.012682858 0.57900006 6029614
-0.071134292 -0.012682858 0.57900006 5964086
-0.069910474 -0.012660953 0.57800001 5898559
-0.068809524 -0.012660953 0.57800001 5833018
-0.067708574 -0.012660953 0.57800001 5833014
-0.066492379 -0.012639049 0.57700002 5898547
-0.065280005 -0.012617144 0.57600003 5898544
-0.064182863 -0.012617144 0.57600003 5964080
-0.062976196 -0.012595239 0.57500005 5767473
-0.061773334 -0.012573333 0.574 5636404
-0.060679998 -0.012573333 0.574 5898807
-0.059586667 -0.012573333 0.574 6160700
-0.058187623 -0.01250762 0.57100004 5898561
-0.057000004 -0.012485716 0.57000005 5636419
-0.05591429 -0.012485716 0.57000005 6029638
-0.054828573 -0.012485716 0.57000005 6488376
-0.053648572 -0.012463809 0.56900001 7078443
-0.052472383 -0.012441905 0.56800002 7668784
-0.0513 -0.012420001 0.56700003 7669557
-0.050220001 -0.012420001 0.56700003 7669053
-0.049053337 -0.012398096 0.56600004 7209797
-0.047975242 -0.012398096 0.56600004 6816322
-0.046897147 -0.012398096 0.56600004 7078207
-0.045738097 -0.01237619 0.565 7344705
-0.044661906 -0.01237619 0.565 7480131
-0.043585714 -0.01237619 0.565 7607105
-0.042509522 -0.01237619 0.565 7144255
-0.041433334 -0.01237619 0.565 6685247
-0.040285714 -0.012354285 0.56400001 6357311
-0.03921143 -0.012354285 0.56400001 6029626
-0.038137145 -0.012354285 0.56400001 5636405
-0.037062857 -0.012354285 0.56400001 5243193
-0.03605238 -0.01237619 0.565 5177662
-0.034976188 -0.01237619 0.565 5177665
-0.0339 -0.01237619 0.565 5701956
-0.032881904 -0.012398096 0.56600004 6227266
-0.031803809 -0.012398096 0.56600004 6687040
-0.030725716 -0.012398096 0.56600004 7153229
-0.029595239 -0.01237619 0.565 7357531
-0.028519047 -0.01237619 0.565 7618905
-0.027442858 -0.01237619 0.565 7683928
-0.026413336 -0.012398096 0.56600004 7751507
-0.025335239 -0.012398096 0.56600004 7556943
-0.024300002 -0.012420001 0.56700003 7418703
-0.023220001 -0.012420001 0.56700003 7018320
-0.022179047 -0.012441905 0.56800002 6622791
-0.02117143 -0.012485716 0.57000005 6424126
-0.020120952 -0.01250762 0.57100004 6226761
-0.019033333 -0.01250762 0.57100004 5505363
-0.018008571 -0.012551429 0.57300001 4850003
-0.016917143 -0.012551429 0.57300001 3146067
-0.015853332 -0.012573333 0.574 1510220
-0.01476 -0.012573333 0.574 1381702
-0.013714286 -0.012617144 0.57600003 1252427
-0.012639049 -0.012639049 0.57700002 1319504
-0.01156 -0.012660953 0.57800001 1450574
-0.010440952 -0.012639049 0.57700002 1385035
-0.0093419049 -0.012639049 0.57700002 1384526
-0.0082428576 -0.012639049 0.57700002 1318480
-0.072237149 -0.011580002 0.57900006 6291724
-0.071134292 -0.011580002 0.57900006 6226191
-0.069910474 -0.01156 0.57800001 6095122
-0.068809524 -0.01156 0.57800001 6029840
-0.067591429 -0.01154 0.57700002 6160910
-0.066377148 -0.01152 0.57600003 6291980
-0.065166667 -0.011500001 0.57500005 6357515
-0.064071439 -0.011500001 0.57500005 6423311
-0.062866665 -0.01148 0.574 6423827
-0.061773334 -0.01148 0.574 6424342
-0.060679998 -0.01148 0.574 6620954
-0.059275243 -0.011420001 0.57100004 6817818
-0.058187623 -0.011420001 0.57100004 6817563
-0.057000004 -0.011400001 0.57000005 6752020
-0.055816192 -0.01138 0.56900001 7014414
-0.054732382 -0.01138 0.56900001 7277087
-0.053554289 -0.01136 0.56800002 7671088
-0.052472383 -0.01136 0.56800002 7999536
-0.0513 -0.011340001 0.56700003 7999280
-0.050220001 -0.011340001 0.56700003 7933739
-0.049053337 -0.011320001 0.56600004 7736102
-0.047975242 -0.011320001 0.56600004 7472926
-0.046897147 -0.011320001 0.56600004 7603478
-0.045819052 -0.011320001 0.56600004 7799573
-0.044661906 -0.011299999 0.565 7733781
-0.043585714 -0.011299999 0.565 7668245
-0.042509522 -0.011299999 0.565 8061206
-0.041433334 -0.011299999 0.565 8519956
-0.040285714 -0.01128 0.56400001 9177362
-0.03921143 -0.01128 0.56400001 9834761
-0.038137145 -0.01128 0.56400001 8325377
-0.037062857 -0.01128 0.56400001 6816001
-0.03605238 -0.011299999 0.565 6750465
-0.034976188 -0.011299999 0.565 6619397
-0.0339 -0.011299999 0.565 6881545
-0.032823808 -0.011299999 0.565 7209486
-0.031747617 -0.011299999 0.565 7538451
-0.030671427 -0.011299999 0.565 7867418
-0.029595239 -0.011299999 0.565 7998241
-0.028519047 -0.011299999 0.565 8129055
-0.027442858 -0.011299999 0.565 8129054
-0.026366666 -0.011299999 0.565 8129054
-0.025335239 -0.011320001 0.56600004 8063518
-0.024257144 -0.011320001 0.56600004 8063509
-0.023260953 -0.01136 0.56800002 7800333
-0.022179047 -0.01136 0.56800002 7602952
-0.02117143 -0.011400001 0.57000005 7472388
-0.020156192 -0.01144 0.57200003 7341847
-0.019099999 -0.01146 0.57300001 7146539
-0.018008571 -0.01146 0.57300001 6951479
-0.016946668 -0.01148 0.574 4985668
-0.015880954 -0.011500001 0.57500005 3020102
-0.014785715 -0.011500001 0.57500005 2102089
-0.013714286 -0.01152 0.57600003 1252940
-0.012639049 -0.01154 0.57700002 1318736
-0.01156 -0.01156 0.57800001 1384524
-0.010440952 -0.01154 0.57700002 1385033
-0.0093419049 -0.01154 0.57700002 1385035
-0.0082428576 -0.01154 0.57700002 1318734
-0.072112381 -0.010459048 0.57800001 6554636
-0.071011432 -0.010459048 0.57800001 6489359
-0.069789521 -0.010440952 0.57700002 6358803
-0.068690479 -0.010440952 0.57700002 6293010
-0.067474291 -0.010422857 0.57600003 6489362
-0.06626191 -0.010404763 0.57500005 6686481
-0.065053329 -0.010386666 0.574 6818064
-0.063959993 -0.010386666 0.574 6949396
-0.062866665 -0.010386666 0.574 7080983
-0.061665714 -0.010368572 0.57300001 7212060
-0.060574286 -0.010368572 0.57300001 7344416
-0.059275243 -0.010332381 0.57100004 7541281
-0.058085717 -0.010314287 0.57000005 7738401
-0.057000004 -0.010314287 0.57000005 7935775
-0.055816192 -0.01029619 0.56900001 8002076
-0.054636192 -0.010278095 0.56800002 8132901
-0.053554289 -0.010278095 0.56800002 8263725
-0.052380003 -0.010260001 0.56700003 8394285
-0.0513 -0.010260001 0.56700003 8328493
-0.050220001 -0.010260001 0.56700003 8262955
-0.049053337 -0.010241905 0.56600004 8197418
-0.047975242 -0.010241905 0.56600004 8197669
-0.046897147 -0.010241905 0.56600004 8198177
-0.045819052 -0.010241905 0.56600004 8263460
-0.044661906 -0.010223809 0.565 8001064
-0.043585714 -0.010223809 0.565 7733796
-0.042509522 -0.010223809 0.565 9044257
-0.041433334 -0.010223809 0.565 10375470
-0.040285714 -0.010205715 0.56400001 12039995
-0.03921143 -0.010205715 0.56400001 13734700
-0.038137145 -0.010205715 0.56400001 11104029
-0.037062857 -0.010205715 0.56400001 8462355
-0.035988573 -0.010205715 0.56400001 8260618
-0.034914285 -0.010205715 0.56400001 8129810
-0.033840001 -0.010205715 0.56400001 8130074
-0.032765713 -0.010205715 0.56400001 8196893
-0.031747617 -0.010223809 0.565 8395041
-0.030671427 -0.010223809 0.565 8657959
-0.029595239 -0.010223809 0.565 8658733
-0.028519047 -0.010223809 0.565 8724267
-0.027442858 -0.010223809 0.565 8593193
-0.026413336 -0.010241905 0.56600004 8527657
-0.025335239 -0.010241905 0.56600004 8593194
-0.024342857 -0.010278095 0.56800002 8724516
-0.023301905 -0.01029619 0.56900001 8659486
-0.022257145 -0.010314287 0.57000005 8659227
-0.021208571 -0.010332381 0.57100004 8527896
-0.020156192 -0.010350476 0.57200003 8462114
-0.019099999 -0.010368572 0.57300001 8724013
-0.018008571 -0.010368572 0.57300001 9051189
-0.016946668 -0.010386666 0.574 6822461
-0.015880954 -0.010404763 0.57500005 4593476
-0.014785715 -0.010404763 0.57500005 2888011
-0.013690477 -0.010404763 0.57500005 1252173
-0.012660953 -0.010459048 0.57800001 1318735
-0.01156 -0.010459048 0.57800001 1384781
-0.010459048 -0.010459048 0.57800001 1385035
-0.009358095 -0.010459048 0.57800001 1384781
-0.0082714288 -0.010477144 0.57900006 1253455
-0.071987621 -0.0093419049 0.57700002 6620172
-0.070888579 -0.0093419049 0.57700002 6489616
-0.069668576 -0.0093257148 0.57600003 6489365
-0.068571433 -0.0093257148 0.57600003 6554901
-0.067357145 -0.0093095247 0.57500005 6620694
-0.06626191 -0.0093095247 0.57500005 6686486
-0.065053329 -0.0092933336 0.574 6752534
-0.063959993 -0.0092933336 0.574 6884633
-0.062757149 -0.0092771426 0.57300001 7015452
-0.061665714 -0.0092771426 0.57300001 7212065
-0.060362861 -0.0092447624 0.57100004 7343911
-0.059275243 -0.0092447624 0.57100004 7541287
-0.058085717 -0.0092285722 0.57000005 7673384
-0.056899998 -0.0092123812 0.56900001 7872041
-0.055718098 -0.0091961902 0.56800002 8003627
-0.054636192 -0.0091961902 0.56800002 8135211
-0.053554289 -0.0091961902 0.56800002 8330539
-0.052380003 -0.009180001 0.56700003 8526378
-0.0513 -0.009180001 0.56700003 8329258
-0.050220001 -0.009180001 0.56700003 8197932
-0.049053337 -0.0091638099 0.56600004 8197423
-0.047975242 -0.0091638099 0.56600004 8197421
-0.046897147 -0.0091638099 0.56600004 8263468
-0.045819052 -0.0091638099 0.56600004 8263987
-0.044661906 -0.0091476189 0.565 8000315
-0.043585714 -0.0091476189 0.565 7733811
-0.042509522 -0.0091476189 0.565 9116716
-0.041360002 -0.0091314288 0.56400001 10527304
-0.040285714 -0.0091314288 0.56400001 12233316
-0.03921143 -0.0091314288 0.56400001 13939535
-0.038137145 -0.0091314288 0.56400001 11440442
-0.037062857 -0.0091314288 0.56400001 8994854
-0.035988573 -0.0091314288 0.56400001 8785427
-0.034914285 -0.0091314288 0.56400001 8657439
-0.033840001 -0.0091314288 0.56400001 8593196
-0.032765713 -0.0091314288 0.56400001 8594733
-0.031747617 -0.0091476189 0.565 8791855
-0.030671427 -0.0091476189 0.565 8988980
-0.029595239 -0.0091476189 0.565 9185849
-0.028519047 -0.0091476189 0.565 9317431
-0.027442858 -0.0091476189 0.565 9055029
-0.026366666 -0.0091476189 0.565 8858165
-0.025335239 -0.0091638099 0.56600004 9054262
-0.024385713 -0.0092123812 0.56900001 9250611
-0.023301905 -0.0092123812 0.56900001 8988464
-0.022257145 -0.0092285722 0.57000005 8791854
-0.021208571 -0.0092447624 0.57100004 8660013
-0.020156192 -0.0092609534 0.57200003 8528430
-0.019099999 -0.0092771426 0.57300001 8593711
-0.018008571 -0.0092771426 0.57300001 8659250
-0.016946668 -0.0092933336 0.574 7610166
-0.015880954 -0.0093095247 0.57500005 6626882
-0.014785715 -0.0093095247 0.57500005 3805518
-0.013690477 -0.0093095247 0.57500005 989262
-0.012660953 -0.009358095 0.57800001 1252942
-0.011580002 -0.009374287 0.57900006 1581646
-0.010477144 -0.009374287 0.57900006 1450318
-0.009374287 -0.009374287 0.57900006 1318991
-0.0082714288 -0.009374287 0.57900006 1253712
-0.073086672 -0.0082428576 0.57700002 6816530
-0.071987621 -0.0082428576 0.57700002 6685711
-0.070888579 -0.0082428576 0.57700002 6554640
-0.069668576 -0.0082285721 0.57600003 6685714
-0.068571433 -0.0082285721 0.57600003 6817042
-0.067357145 -0.0082142865 0.57500005 6752019
-0.06626191 -0.0082142865 0.57500005 6686484
-0.065053329 -0.0082 0.574 6752789
-0.06384857 -0.0081857145 0.57300001 6884119
-0.062757149 -0.0081857145 0.57300001 7015449
-0.061665714 -0.0081857145 0.57300001 7212318
-0.060468573 -0.008171428 0.57200003 7343652
-0.059171431 -0.0081428578 0.57000005 7541031
-0.058085717 -0.0081428578 0.57000005 7673898
-0.056800004 -0.0081142858 0.56800002 7871020
-0.055718098 -0.0081142858 0.56800002 8004398
-0.054540001 -0.0081000002 0.56700003 8200495
-0.053460002 -0.0081000002 0.56700003 8396848
-0.052380003 -0.0081000002 0.56700003 8657709
-0.0513 -0.0081000002 0.56700003 8395563
-0.050131433 -0.0080857147 0.56600004 8198444
-0.049053337 -0.0080857147 0.56600004 8197676
-0.047890477 -0.0080714291 0.565 8262955
-0.046814285 -0.0080714291 0.565 8263210
-0.045738097 -0.0080714291 0.565 8329265
-0.044661906 -0.0080714291 0.565 7999544
-0.043585714 -0.0080714291 0.565 7734824
-0.042434286 -0.0080571426 0.56400001 9189145
-0.041360002 -0.0080571426 0.56400001 10650435
-0.040285714 -0.0080571426 0.56400001 12375662
-0.03921143 -0.0080571426 0.56400001 14133068
-0.038137145 -0.0080571426 0.56400001 11842347
-0.036997143 -0.008042858 0.56300002 9576483
-0.035988573 -0.0080571426 0.56400001 9375771
-0.034914285 -0.0080571426 0.56400001 9184550
-0.033840001 -0.0080571426 0.56400001 9120561
-0.032765713 -0.0080571426 0.56400001 9055027
-0.031691428 -0.0080571426 0.56400001 9186358
-0.030617142 -0.0080571426 0.56400001 9382972
-0.029595239 -0.0080714291 0.565 9645379
-0.028519047 -0.0080714291 0.565 9972796
-0.027442858 -0.0080714291 0.565 9579573
-0.026413336 -0.0080857147 0.56600004 9185334
-0.025335239 -0.0080857147 0.56600004 9446454
-0.024342857 -0.0081142858 0.56800002 9773875
-0.023260953 -0.0081142858 0.56800002 9380655
-0.022218095 -0.0081285713 0.56900001 8987950
-0.02117143 -0.0081428578 0.57000005 8791853
-0.020120952 -0.0081571434 0.57100004 8659501
-0.019066667 -0.008171428 0.57200003 8463149
-0.018008571 -0.0081857145 0.57300001 8331056
-0.016917143 -0.0081857145 0.57300001 8461875
-0.015880954 -0.0082142865 0.57500005 8659262
-0.014785715 -0.0082142865 0.57500005 4723017
-0.013714286 -0.0082285721 0.57600003 792139
-0.012660953 -0.0082571432 0.57800001 1252942
-0.011580002 -0.0082714288 0.57900006 1777485
-0.010477144 -0.0082714288 0.57900006 1515597
-0.0093904771 -0.0082857152 0.58000004 1318989
-0.0082857152 -0.0082857152 0.58000004 1319500
-0.073086672 -0.0071438099 0.57700002 6554387
-0.071862854 -0.0071314289 0.57600003 6488851
-0.070765711 -0.0071314289 0.57600003 6423313
-0.069547623 -0.0071190479 0.57500005 6489103
-0.068452388 -0.0071190479 0.57500005 6620432
-0.067357145 -0.0071190479 0.57500005 6620689
-0.066146672 -0.0071066665 0.574 6686483
-0.065053329 -0.0071066665 0.574 6752277
-0.06384857 -0.0070942859 0.57300001 6818069
-0.062757149 -0.0070942859 0.57300001 6949142
-0.061558098 -0.0070819049 0.57200003 7080219
-0.060362861 -0.0070695239 0.57100004 7277857
-0.059171431 -0.0070571434 0.57000005 7409958
-0.057983808 -0.0070447619 0.56900001 7607084
