# .PCD v0.7 - Point Cloud Data file format
VERSION 0.7
FIELDS x y z rgba
SIZE 4 4 4 4
TYPE F F F U
COUNT 1 1 1 1
WIDTH 1100
HEIGHT 1
VIEWPOINT 0 0 0 1 0 0 0
POINTS 1100
DATA ascii
-0.044839051 0.09018191 0.52900004 2109041
-0.043997146 0.090522863 0.53100002 2109039
-0.043066666 0.09069334 0.53200001 2109294
-0.042211432 0.091034293 0.53400004 2109037
-0.041348573 0.091375239 0.53600001 2109035
-0.04032762 0.091375239 0.53600001 2043497
-0.039306667 0.091375239 0.53600001 2043756
-0.038285714 0.091375239 0.53600001 1977967
-0.11894095 0.092396185 0.53600001 10031409
-0.11792 0.092396185 0.53600001 10032434
-0.11689905 0.092396185 0.53600001 10096946
-0.1158781 0.092396185 0.53600001 10162738
-0.11442858 0.092051432 0.53400004 10228278
-0.11298667 0.091706663 0.53200001 10359611
-0.11197333 0.091706663 0.53200001 10491199
-0.11075143 0.091534287 0.53100002 10623811
-0.10953334 0.09136191 0.53000003 10823243
-0.10831905 0.091189533 0.52900004 11021907
-0.10710857 0.091017142 0.528 11218255
-0.1059019 0.090844765 0.52700001 11216971
-0.10469905 0.090672381 0.52600002 11216202
-0.10330287 0.090327628 0.52400005 11215433
-0.10210953 0.090155236 0.523 11216969
-0.10072667 0.089810476 0.52100003 11217225
-0.099542871 0.089638107 0.52000004 11216968
-0.098362871 0.089465722 0.51900005 11282504
-0.097186662 0.089293338 0.51800001 11413316
-0.096014284 0.089120954 0.51700002 11084863
-0.09484572 0.088948578 0.51600003 10750787
-0.093862861 0.088948578 0.51600003 12517703
-0.092880011 0.088948578 0.51600003 14317907
-0.091897145 0.088948578 0.51600003 15527263
-0.090914294 0.088948578 0.51600003 16698966
-0.089757152 0.088776201 0.51500005 14921804
-0.088603802 0.088603802 0.514 13195831
-0.087454289 0.088431433 0.51300001 12264482
-0.086477146 0.088431433 0.51300001 11346993
-0.085500002 0.088431433 0.51300001 11543873
-0.084522858 0.088431433 0.51300001 11806015
-0.083545715 0.088431433 0.51300001 11806013
-0.082568571 0.088431433 0.51300001 11806785
-0.081591435 0.088431433 0.51300001 11873094
-0.080614291 0.088431433 0.51300001 12003647
-0.079637147 0.088431433 0.51300001 12068153
-0.078660004 0.088431433 0.51300001 12134461
-0.07768286 0.088431433 0.51300001 12200257
-0.076705717 0.088431433 0.51300001 12330812
-0.075728573 0.088431433 0.51300001 11937592
-0.074751429 0.088431433 0.51300001 11543864
-0.073774293 0.088431433 0.51300001 11478073
-0.072797149 0.088431433 0.51300001 11412284
-0.071820006 0.088431433 0.51300001 11739712
-0.070842862 0.088431433 0.51300001 12132923
-0.069865711 0.088431433 0.51300001 11739703
-0.068888567 0.088431433 0.51300001 11411510
-0.068043806 0.088603802 0.514 11345462
-0.067064762 0.088603802 0.514 11278134
-0.066085711 0.088603802 0.514 11081013
-0.065106668 0.088603802 0.514 10884403
-0.064377144 0.088948578 0.51600003 10688049
-0.063394286 0.088948578 0.51600003 10491436
-0.062411431 0.088948578 0.51600003 10229543
-0.061428577 0.088948578 0.51600003 10032169
-0.060445715 0.088948578 0.51600003 9769258
-0.05946286 0.088948578 0.51600003 9572138
-0.058593336 0.089120954 0.51700002 9571883
-0.057719998 0.089293338 0.51800001 9637675
-0.05684286 0.089465722 0.51900005 9835052
-0.055854291 0.089465722 0.51900005 10096429
-0.055077143 0.089810476 0.52100003 10161455
-0.054188572 0.08998286 0.52200001 10226734
-0.05329619 0.090155236 0.523 10292269
-0.052299999 0.090155236 0.523 10423339
-0.051303808 0.090155236 0.523 10357801
-0.050403811 0.090327628 0.52400005 10357805
-0.049500003 0.090500005 0.52500004 10488114
-0.048592385 0.090672381 0.52600002 10620225
-0.047680955 0.090844765 0.52700001 8458576
-0.046677142 0.090844765 0.52700001 6365277
-0.045759998 0.091017142 0.528 4138601
-0.044839051 0.091189533 0.52900004 1977196
-0.043997146 0.091534287 0.53100002 2043502
-0.043066666 0.091706663 0.53200001 2109037
-0.042211432 0.092051432 0.53400004 2109292
-0.04127143 0.092223816 0.53500003 2175083
-0.04032762 0.092396185 0.53600001 2109803
-0.039306667 0.092396185 0.53600001 2109036
-0.038285714 0.092396185 0.53600001 1977709
-0.11894095 0.093417145 0.53600001 9900337
-0.11792 0.093417145 0.53600001 9965873
-0.11689905 0.093417145 0.53600001 10031410
-0.1158781 0.093417145 0.53600001 10096947
-0.11442858 0.093068577 0.53400004 10161718
-0.11319906 0.092894293 0.53300005 10293562
-0.11197333 0.092720002 0.53200001 10491709
-0.11075143 0.092545718 0.53100002 10624320
-0.10953334 0.092371434 0.53000003 10824269
-0.10831905 0.09219715 0.52900004 11152219
-0.10710857 0.092022859 0.528 11480149
-0.1059019 0.091848575 0.52700001 11413327
-0.10469905 0.091674291 0.52600002 11347532
-0.10330287 0.091325723 0.52400005 11347529
-0.10210953 0.091151424 0.523 11413065
-0.10092 0.09097714 0.52200001 11348297
-0.099351436 0.090454295 0.51900005 11280968
-0.098362871 0.090454295 0.51900005 11413575
-0.097186662 0.090279996 0.51800001 11609925
-0.096014284 0.090105712 0.51700002 11150147
-0.09484572 0.089931436 0.51600003 10748747
-0.093862861 0.089931436 0.51600003 12330580
-0.092880011 0.089931436 0.51600003 13943916
-0.091897145 0.089931436 0.51600003 15331973
-0.090914294 0.089931436 0.51600003 16700553
-0.089757152 0.089757152 0.51500005 14859406
-0.088776201 0.089757152 0.51500005 13079389
-0.087624758 0.089582853 0.514 12064301
-0.086477146 0.089408576 0.51300001 11143734
-0.085500002 0.089408576 0.51300001 11543360
-0.084522858 0.089408576 0.51300001 11938367
-0.083545715 0.089408576 0.51300001 11873087
-0.082407624 0.089234293 0.51200002 11807817
-0.081591435 0.089408576 0.51300001 11938644
-0.080457143 0.089234293 0.51200002 12068937
-0.079481907 0.089234293 0.51200002 12003647
-0.078660004 0.089408576 0.51300001 12004164
-0.07768286 0.089408576 0.51300001 12265802
-0.076705717 0.089408576 0.51300001 12527683
-0.075728573 0.089408576 0.51300001 12133180
-0.074751429 0.089408576 0.51300001 11673659
-0.073774293 0.089408576 0.51300001 11607611
-0.072797149 0.089408576 0.51300001 11541569
-0.071820006 0.089408576 0.51300001 11672648
-0.070842862 0.089408576 0.51300001 11869503
-0.069865711 0.089408576 0.51300001 11673654
-0.068888567 0.089408576 0.51300001 11408949
-0.068043806 0.089582853 0.514 11277109
-0.067064762 0.089582853 0.514 11145526
-0.066085711 0.089582853 0.514 10948407
-0.065106668 0.089582853 0.514 10751540
-0.064252384 0.089757152 0.51500005 10554929
-0.063394286 0.089931436 0.51600003 10423850
-0.062411431 0.089931436 0.51600003 10161956
-0.061428577 0.089931436 0.51600003 9900325
-0.060445715 0.089931436 0.51600003 9637926
-0.05946286 0.089931436 0.51600003 9440808
-0.058593336 0.090105712 0.51700002 9506346
-0.057719998 0.090279996 0.51800001 9571883
-0.05684286 0.090454295 0.51900005 9768492
-0.055854291 0.090454295 0.51900005 9965099
-0.054971434 0.090628572 0.52000004 10030123
-0.054188572 0.09097714 0.52200001 10161195
-0.05329619 0.091151424 0.523 10226731
-0.052299999 0.091151424 0.523 10357288
-0.051303808 0.091151424 0.523 10357541
-0.050403811 0.091325723 0.52400005 10358056
-0.049405716 0.091325723 0.52400005 10422571
-0.048592385 0.091674291 0.52600002 10488378
-0.047680955 0.091848575 0.52700001 9440329
-0.046677142 0.091848575 0.52700001 8396372
-0.045759998 0.092022859 0.528 5317471
-0.044839051 0.09219715 0.52900004 2304358
-0.043997146 0.092545718 0.53100002 2370926
-0.043066666 0.092720002 0.53200001 2370925
-0.042211432 0.093068577 0.53400004 2175084
-0.04127143 0.093242861 0.53500003 1913196
-0.04032762 0.093417145 0.53600001 1978221
-0.039306667 0.093417145 0.53600001 2043500
-0.038285714 0.093417145 0.53600001 1977708
-0.11894095 0.094438098 0.53600001 9769521
-0.11792 0.094438098 0.53600001 9834800
-0.11689905 0.094438098 0.53600001 9965873
-0.1158781 0.094438098 0.53600001 10031409
-0.11442858 0.094085723 0.53400004 10096692
-0.11298667 0.093733333 0.53200001 10293046
-0.11197333 0.093733333 0.53200001 10491449
-0.11096 0.093733333 0.53200001 10690364
-0.10974 0.093557142 0.53100002 10888520
-0.10852382 0.093380958 0.53000003 11348564
-0.10710857 0.093028568 0.528 11806801
-0.1059019 0.092852384 0.52700001 11609935
-0.1045 0.092500009 0.52500004 11479116
-0.10310572 0.092147619 0.523 11545162
-0.10210953 0.092147619 0.523 11610183
-0.10092 0.091971427 0.52200001 11479364
-0.099351436 0.091442861 0.51900005 11413829
-0.098173335 0.091266669 0.51800001 11610437
-0.096999057 0.091090478 0.51700002 11806534
-0.096014284 0.091090478 0.51700002 11280966
-0.09484572 0.090914294 0.51600003 10816581
-0.093862861 0.090914294 0.51600003 12143684
-0.092880011 0.090914294 0.51600003 13543780
-0.091897145 0.090914294 0.51600003 15136899
-0.090738103 0.090738103 0.51500005 16699241
-0.089582853 0.090561904 0.514 14862415
-0.088603802 0.090561904 0.514 12997941
-0.087454289 0.090385713 0.51300001 11929884
-0.086477146 0.090385713 0.51300001 10949422
-0.085500002 0.090385713 0.51300001 11543104
-0.084522858 0.090385713 0.51300001 12134720
-0.08338286 0.090209521 0.51200002 12003904
-0.082407624 0.090209521 0.51200002 11872839
-0.081432387 0.090209521 0.51200002 12004174
-0.080457143 0.090209521 0.51200002 12199753
-0.079481907 0.090209521 0.51200002 12004676
-0.078506671 0.090209521 0.51200002 11873605
-0.077531435 0.090209521 0.51200002 12332358
-0.076705717 0.090385713 0.51300001 12789313
-0.075728573 0.090385713 0.51300001 12329020
-0.074751429 0.090385713 0.51300001 11870011
-0.073774293 0.090385713 0.51300001 11738682
-0.072797149 0.090385713 0.51300001 11673150
-0.071820006 0.090385713 0.51300001 11673154
-0.070842862 0.090385713 0.51300001 11673148
-0.069865711 0.090385713 0.51300001 11542070
-0.068888567 0.090385713 0.51300001 11474740
-0.067911424 0.090385713 0.51300001 11277618
-0.06693428 0.090385713 0.51300001 11080240
-0.066085711 0.090561904 0.514 10883119
-0.065106668 0.090561904 0.514 10685742
-0.064252384 0.090738103 0.51500005 10489134
-0.063394286 0.090914294 0.51600003 10357801
-0.062411431 0.090914294 0.51600003 10095653
-0.061428577 0.090914294 0.51600003 9834021
-0.060445715 0.090914294 0.51600003 9572390
-0.05946286 0.090914294 0.51600003 9309480
-0.058593336 0.091090478 0.51700002 9376299
-0.057608575 0.091090478 0.51700002 9506863
-0.056733333 0.091266669 0.51800001 9638195
-0.055854291 0.091442861 0.51900005 9834287
-0.054865718 0.091442861 0.51900005 9964587
-0.054188572 0.091971427 0.52200001 10095406
-0.053194284 0.091971427 0.52200001 10161713
-0.052299999 0.092147619 0.523 10291757
-0.051303808 0.092147619 0.523 10357546
-0.05030762 0.092147619 0.523 10422826
-0.049405716 0.092323817 0.52400005 10357291
-0.048592385 0.092676193 0.52600002 10357300
-0.047680955 0.092852384 0.52700001 10356797
-0.046765715 0.093028568 0.528 10426186
-0.045846671 0.093204767 0.52900004 6560343
-0.044923812 0.093380958 0.53000003 2696289
-0.043997146 0.093557142 0.53100002 2698604
-0.043066666 0.093733333 0.53200001 2698603
-0.042132385 0.093909532 0.53300005 2175339
-0.041194286 0.094085723 0.53400004 1716077
-0.040252384 0.094261907 0.53500003 1846896
-0.039306667 0.094438098 0.53600001 1977966
-0.038285714 0.094438098 0.53600001 1912429
-0.11894095 0.095459051 0.53600001 9704498
-0.11792 0.095459051 0.53600001 9835312
-0.11689905 0.095459051 0.53600001 9966128
-0.11566191 0.09528096 0.53500003 10031920
-0.11442858 0.095102862 0.53400004 10163505
-0.11298667 0.094746664 0.53200001 10294579
-0.11197333 0.094746664 0.53200001 10491446
-0.11096 0.094746664 0.53200001 10624569
-0.10994667 0.094746664 0.53200001 10821955
-0.10872857 0.094568573 0.53100002 11083342
-0.10690571 0.093856193 0.52700001 11410510
-0.1059019 0.093856193 0.52700001 11347535
-0.10430096 0.093321912 0.52400005 11346509
-0.10310572 0.093143813 0.523 11347020
-0.10210953 0.093143813 0.523 11413318
-0.10053334 0.092609525 0.52000004 11347776
-0.099351436 0.092431433 0.51900005 11347778
-0.098173335 0.092253335 0.51800001 11479108
-0.096999057 0.092075236 0.51700002 11610183
-0.096014284 0.092075236 0.51700002 11216202
-0.09484572 0.091897145 0.51600003 10818879
-0.093862861 0.091897145 0.51600003 11221557
-0.092880011 0.091897145 0.51600003 11636315
-0.091897145 0.091897145 0.51600003 13282434
-0.090738103 0.091719054 0.51500005 14928713
-0.089582853 0.091540948 0.514 13141520
-0.088603802 0.091540948 0.514 11343886
-0.087454289 0.091362856 0.51300001 11213324
-0.086477146 0.091362856 0.51300001 11148326
-0.085500002 0.091362856 0.51300001 11478336
-0.084358096 0.091184765 0.51200002 11872320
-0.08338286 0.091184765 0.51200002 11741761
-0.082407624 0.091184765 0.51200002 11611717
-0.08127334 0.091006674 0.51100004 11677257
-0.080300003 0.091006674 0.51100004 11741001
-0.079326674 0.091006674 0.51100004 11478857
-0.078353338 0.091006674 0.51100004 11282245
-0.077531435 0.091184765 0.51200002 11542594
-0.076556191 0.091184765 0.51200002 11868735
-0.075580955 0.091184765 0.51200002 11737660
-0.074605718 0.091184765 0.51200002 11606842
-0.073774293 0.091362856 0.51300001 11542073
-0.072797149 0.091362856 0.51300001 11475003
-0.071820006 0.091362856 0.51300001 11409725
-0.070842862 0.091362856 0.51300001 11410233
-0.069865711 0.091362856 0.51300001 11279670
-0.068888567 0.091362856 0.51300001 11212850
-0.067911424 0.091362856 0.51300001 11081263
-0.06693428 0.091362856 0.51300001 10949675
-0.066085711 0.091540948 0.514 10752039
-0.065106668 0.091540948 0.514 10619945
-0.064252384 0.091719054 0.51500005 10423083
-0.063271433 0.091719054 0.51500005 10224936
-0.062290482 0.091719054 0.51500005 9964582
-0.061428577 0.091897145 0.51600003 9702182
-0.060445715 0.091897145 0.51600003 9374758
-0.05946286 0.091897145 0.51600003 9112873
-0.058480002 0.091897145 0.51600003 9244461
-0.057608575 0.092075236 0.51700002 9441075
-0.056733333 0.092253335 0.51800001 9572410
-0.055746667 0.092253335 0.51800001 9769010
-0.054865718 0.092431433 0.51900005 9899307
-0.054084763 0.092787623 0.52100003 10095409
-0.053194284 0.092965722 0.52200001 10160951
-0.052299999 0.093143813 0.523 10226483
-0.051303808 0.093143813 0.523 10292015
-0.05030762 0.093143813 0.523 10422573
-0.049405716 0.093321912 0.52400005 10488363
-0.048592385 0.093678102 0.52600002 10553902
-0.047680955 0.093856193 0.52700001 10487857
-0.046854287 0.09421239 0.52900004 10424384
-0.045846671 0.09421239 0.52900004 8000591
-0.044923812 0.094390482 0.53000003 5513308
-0.043997146 0.094568573 0.53100002 3941994
-0.043066666 0.094746664 0.53200001 2370922
-0.042053334 0.094746664 0.53200001 2108778
-0.041117147 0.09492477 0.53300005 1912430
-0.040177148 0.095102862 0.53400004 1977971
-0.039233338 0.09528096 0.53500003 2043505
-0.038285714 0.095459051 0.53600001 1846895
-0.037264764 0.095459051 0.53600001 1651053
-0.036243808 0.095459051 0.53600001 1847148
-0.11894095 0.096479997 0.53600001 9639216
-0.11792 0.096479997 0.53600001 9770288
-0.11689905 0.096479997 0.53600001 9966640
-0.11566191 0.096300006 0.53500003 10097712
-0.11442858 0.096120007 0.53400004 10229553
-0.11319906 0.095940009 0.53300005 10361394
-0.11197333 0.095760003 0.53200001 10492982
-0.11096 0.095760003 0.53200001 10624569
-0.10994667 0.095760003 0.53200001 10756162
-0.10893334 0.095760003 0.53200001 10886987
-0.10710857 0.095040001 0.528 11084363
-0.1059019 0.094860002 0.52700001 11150923
-0.10430096 0.094320007 0.52400005 11215947
-0.10271143 0.093780003 0.52100003 11215691
-0.10171905 0.093780003 0.52100003 11215943
-0.10034001 0.093420006 0.51900005 11216195
-0.099351436 0.093420006 0.51900005 11282499
-0.098173335 0.09324 0.51800001 11348547
-0.096999057 0.093060002 0.51700002 11413828
-0.096014284 0.093060002 0.51700002 11086150
-0.09484572 0.092880011 0.51600003 10823739
-0.093862861 0.092880011 0.51600003 10299441
-0.092880011 0.092880011 0.51600003 9786950
-0.091719054 0.092700005 0.51500005 11437402
-0.090561904 0.092519999 0.514 13133117
-0.089582853 0.092519999 0.514 11420960
-0.088603802 0.092519999 0.514 9771043
-0.087454289 0.09234 0.51300001 10559270
-0.086477146 0.09234 0.51300001 11347507
-0.085500002 0.09234 0.51300001 11480640
-0.084358096 0.092160001 0.51200002 11611201
-0.083220005 0.09198001 0.51100004 11479617
-0.082246676 0.09198001 0.51100004 11415622
-0.08127334 0.09198001 0.51100004 11350347
-0.080300003 0.09198001 0.51100004 11349577
-0.079326674 0.09198001 0.51100004 11021382
-0.078353338 0.09198001 0.51100004 10692161
-0.077380009 0.09198001 0.51100004 10821435
-0.076406673 0.09198001 0.51100004 10952251
-0.075433344 0.09198001 0.51100004 11148603
-0.074605718 0.092160001 0.51200002 11345210
-0.073630482 0.092160001 0.51200002 11279929
-0.072655238 0.092160001 0.51200002 11280442
-0.071820006 0.09234 0.51300001 11215419
-0.070704766 0.092160001 0.51200002 11148601
-0.069729529 0.092160001 0.51200002 11082808
-0.068888567 0.09234 0.51300001 11016755
-0.067911424 0.09234 0.51300001 10885167
-0.06693428 0.09234 0.51300001 10818860
-0.065957144 0.09234 0.51300001 10686761
-0.065106668 0.092519999 0.514 10554923
-0.064127617 0.092519999 0.514 10357292
-0.063271433 0.092700005 0.51500005 10160936
-0.062290482 0.092700005 0.51500005 9833508
-0.061428577 0.092880011 0.51600003 9571364
-0.060445715 0.092880011 0.51600003 9243685
-0.05946286 0.092880011 0.51600003 8981545
-0.058593336 0.093060002 0.51700002 9179181
-0.057608575 0.093060002 0.51700002 9375792
-0.056733333 0.09324 0.51800001 9506867
-0.055854291 0.093420006 0.51900005 9703215
-0.054865718 0.093420006 0.51900005 9899563
-0.054084763 0.093780003 0.52100003 10095662
-0.053194284 0.093960002 0.52200001 10160689
-0.052299999 0.094140001 0.523 10226478
-0.051303808 0.094140001 0.523 10292012
-0.05030762 0.094140001 0.523 10423083
-0.049405716 0.094320007 0.52400005 10554155
-0.048592385 0.094680004 0.52600002 10750512
-0.047680955 0.094860002 0.52700001 10618933
-0.046854287 0.095220007 0.52900004 10488892
-0.045846671 0.095220007 0.52900004 9440836
-0.044923812 0.095400006 0.53000003 8395857
-0.043997146 0.095579997 0.53100002 5185375
-0.043066666 0.095760003 0.53200001 2042467
-0.042053334 0.095760003 0.53200001 2043495
-0.041117147 0.095940009 0.53300005 2109034
-0.040177148 0.096120007 0.53400004 2109293
-0.039233338 0.096300006 0.53500003 2109036
-0.038285714 0.096479997 0.53600001 1715819
-0.037264764 0.096479997 0.53600001 1388395
-0.036243808 0.096479997 0.53600001 1782378
-0.034329526 0.096840009 0.53800005 2174574
-0.033304762 0.096840009 0.53800005 2174317
-0.11894095 0.09750095 0.53600001 9640495
-0.1177 0.097319052 0.53500003 9770800
-0.11668096 0.097319052 0.53500003 9966896
-0.11566191 0.097319052 0.53500003 10097713
-0.11442858 0.097137153 0.53400004 10230577
-0.11319906 0.096955247 0.53300005 10296370
-0.11218382 0.096955247 0.53300005 10427958
-0.11096 0.096773334 0.53200001 10624826
-0.10994667 0.096773334 0.53200001 10756673
-0.10893334 0.096773334 0.53200001 10888009
-0.10731144 0.096227624 0.52900004 11019336
-0.10630382 0.096227624 0.52900004 11150920
-0.10390285 0.094954289 0.52200001 11282249
-0.10290857 0.094954289 0.52200001 11216970
-0.10152382 0.094590485 0.52000004 11151944
-0.10053334 0.094590485 0.52000004 11151686
-0.099160001 0.094226666 0.51800001 11151684
-0.098173335 0.094226666 0.51800001 11217219
-0.096999057 0.09404476 0.51700002 11348546
-0.096014284 0.09404476 0.51700002 11217730
-0.09484572 0.093862861 0.51600003 11152696
-0.093862861 0.093862861 0.51600003 10823982
-0.092700005 0.093680955 0.51500005 10494256
-0.091540948 0.093499042 0.514 11276595
-0.090561904 0.093499042 0.514 11993394
-0.089408576 0.093317144 0.51300001 11210033
-0.088431433 0.093317144 0.51300001 10426681
-0.087454289 0.093317144 0.51300001 10888513
-0.086477146 0.093317144 0.51300001 11284033
-0.08533334 0.093135245 0.51200002 11415105
-0.084358096 0.093135245 0.51200002 11480641
-0.083220005 0.092953339 0.51100004 11415618
-0.082246676 0.092953339 0.51100004 11350600
-0.08127334 0.092953339 0.51100004 11284814
-0.080300003 0.092953339 0.51100004 11219017
-0.079171434 0.092771441 0.51000005 11086404
-0.078353338 0.092953339 0.51100004 10888764
-0.077380009 0.092953339 0.51100004 10953269
-0.076406673 0.092953339 0.51100004 11017783
-0.075433344 0.092953339 0.51100004 11083322
-0.074460007 0.092953339 0.51100004 11214394
-0.073486671 0.092953339 0.51100004 11148858
-0.072513342 0.092953339 0.51100004 11148858
-0.071680002 0.093135245 0.51200002 11083322
-0.070704766 0.093135245 0.51200002 11083578
-0.069729529 0.093135245 0.51200002 10951994
-0.068754286 0.093135245 0.51200002 10886196
-0.067911424 0.093317144 0.51300001 10820143
-0.06693428 0.093317144 0.51300001 10753837
-0.065957144 0.093317144 0.51300001 10621996
-0.065106668 0.093499042 0.514 10489901
-0.064127617 0.093499042 0.514 10292014
-0.063271433 0.093680955 0.51500005 10095400
-0.062290482 0.093680955 0.51500005 9702434
-0.061309531 0.093680955 0.51500005 9375011
-0.060445715 0.093862861 0.51600003 9046821
-0.05946286 0.093862861 0.51600003 8784169
-0.058480002 0.093862861 0.51600003 8981293
-0.057608575 0.09404476 0.51700002 9113132
-0.056733333 0.094226666 0.51800001 9310508
-0.055746667 0.094226666 0.51800001 9573163
-0.054865718 0.094408579 0.51900005 9769003
-0.054084763 0.094772384 0.52100003 9965099
-0.053194284 0.094954289 0.52200001 10095915
-0.052299999 0.095136188 0.523 10161194
-0.051303808 0.095136188 0.523 10226473
-0.05030762 0.095136188 0.523 10291754
-0.049405716 0.095318101 0.52400005 10422828
-0.048592385 0.095681906 0.52600002 10488626
-0.047680955 0.095863812 0.52700001 10422841
-0.046854287 0.096227624 0.52900004 10291769
-0.045933336 0.096409529 0.53000003 9833786
-0.045008574 0.096591435 0.53100002 9312327
-0.04408 0.096773334 0.53200001 6364500
-0.043066666 0.096773334 0.53200001 3352668
-0.042053334 0.096773334 0.53200001 2632037
-0.041117147 0.096955247 0.53300005 1845862
-0.040101908 0.096955247 0.53300005 2108264
-0.039160002 0.097137153 0.53400004 2305128
-0.038214289 0.097319052 0.53500003 2042984
-0.037195239 0.097319052 0.53500003 1781096
-0.036243808 0.09750095 0.53600001 2108777
-0.035222858 0.09750095 0.53600001 2502250
-0.034265716 0.097682856 0.537 2370924
-0.11894095 0.098521911 0.53600001 9705520
-0.1177 0.098338097 0.53500003 9836849
-0.11668096 0.098338097 0.53500003 9966897
-0.11566191 0.098338097 0.53500003 10097969
-0.11442858 0.098154292 0.53400004 10230067
-0.11319906 0.097970486 0.53300005 10296885
-0.11218382 0.097970486 0.53300005 10428217
-0.11116859 0.097970486 0.53300005 10625085
-0.10994667 0.097786665 0.53200001 10822209
-0.10893334 0.097786665 0.53200001 10890054
-0.10792 0.097786665 0.53200001 11020871
-0.10690667 0.097786665 0.53200001 11217224
-0.10390285 0.095948569 0.52200001 11413833
-0.10290857 0.095948569 0.52200001 11284555
-0.10171905 0.095764771 0.52100003 11152458
-0.10053334 0.095580958 0.52000004 11086153
-0.099160001 0.095213331 0.51800001 11020361
-0.097983815 0.095029525 0.51700002 11152713
-0.096999057 0.095029525 0.51700002 11284039
-0.09582857 0.09484572 0.51600003 11349828
-0.09484572 0.09484572 0.51600003 11479873
-0.093680955 0.094661914 0.51500005 11348543
-0.092519999 0.094478101 0.514 11281727
-0.091540948 0.094478101 0.514 11080767
-0.090385713 0.094294287 0.51300001 10950974
-0.089408576 0.094294287 0.51300001 11018045
-0.088431433 0.094294287 0.51300001 11150658
-0.087454289 0.094294287 0.51300001 11217735
-0.086477146 0.094294287 0.51300001 11284292
-0.08533334 0.094110474 0.51200002 11350850
-0.084193341 0.093926676 0.51100004 11415875
-0.083220005 0.093926676 0.51100004 11349829
-0.082246676 0.093926676 0.51100004 11284550
-0.081114292 0.093742862 0.51000005 11219272
-0.080142863 0.093742862 0.51000005 11152709
-0.079171434 0.093742862 0.51000005 11151682
-0.078200005 0.093742862 0.51000005 11151164
-0.077228583 0.093742862 0.51000005 11151414
-0.076406673 0.093926676 0.51100004 11150137
-0.075285725 0.093742862 0.51000005 11083580
-0.074460007 0.093926676 0.51100004 11083578
-0.073486671 0.093926676 0.51100004 11018041
-0.072513342 0.093926676 0.51100004 11018040
-0.071540006 0.093926676 0.51100004 11018039
-0.070566677 0.093926676 0.51100004 11017526
-0.06959334 0.093926676 0.51100004 10885173
-0.068754286 0.094110474 0.51200002 10754866
-0.067911424 0.094294287 0.51300001 10689839
-0.06693428 0.094294287 0.51300001 10688300
-0.065957144 0.094294287 0.51300001 10557482
-0.065106668 0.094478101 0.514 10489132
-0.064127617 0.094478101 0.514 10292271
-0.063271433 0.094661914 0.51500005 10095656
-0.062290482 0.094661914 0.51500005 9637153
-0.061428577 0.09484572 0.51600003 9177890
-0.060445715 0.09484572 0.51600003 8914724
-0.05946286 0.09484572 0.51600003 8652839
-0.058480002 0.09484572 0.51600003 8784426
-0.057608575 0.095029525 0.51700002 8916267
-0.056733333 0.095213331 0.51800001 9179947
-0.055746667 0.095213331 0.51800001 9442090
-0.054865718 0.095397152 0.51900005 9639209
-0.053980954 0.095580958 0.52000004 9899816
-0.053194284 0.095948569 0.52200001 10030886
-0.052299999 0.096132383 0.523 10162214
-0.051303808 0.096132383 0.523 10162470
-0.05030762 0.096132383 0.523 10227496
-0.049594287 0.096683815 0.52600002 10227243
-0.048684761 0.096867613 0.52700001 10292014
-0.047680955 0.096867613 0.52700001 10226482
-0.046854287 0.097235247 0.52900004 10160946
-0.045933336 0.097419053 0.53000003 10226739
-0.045008574 0.097602859 0.53100002 10295104
-0.04408 0.097786665 0.53200001 7478093
-0.043066666 0.097786665 0.53200001 4728153
-0.042053334 0.097786665 0.53200001 3156581
-0.041117147 0.097970486 0.53300005 1648998
-0.040101908 0.097970486 0.53300005 2108520
-0.039160002 0.098154292 0.53400004 2567272
-0.038285714 0.098521911 0.53600001 2370664
-0.037264764 0.098521911 0.53600001 2173799
-0.036243808 0.098521911 0.53600001 2501479
-0.035222858 0.098521911 0.53600001 2829161
-0.034265716 0.098705709 0.537 2567018
-0.11894095 0.099542864 0.53600001 9639985
-0.1177 0.099357143 0.53500003 9771315
-0.11668096 0.099357143 0.53500003 9966898
-0.11566191 0.099357143 0.53500003 10097969
-0.11442858 0.09917143 0.53400004 10229812
-0.11319906 0.098985724 0.53300005 10295352
-0.11239429 0.09917143 0.53400004 10426684
-0.11116859 0.098985724 0.53300005 10624832
-0.11015334 0.098985724 0.53300005 10822465
-0.10893334 0.098799996 0.53200001 10823235
-0.10792 0.098799996 0.53200001 10889541
-0.10690667 0.098799996 0.53200001 11020616
-0.10370382 0.096757151 0.52100003 11217994
-0.10271143 0.096757151 0.52100003 11152973
-0.10171905 0.096757151 0.52100003 11087437
-0.10053334 0.096571438 0.52000004 11020877
-0.099160001 0.096200004 0.51800001 11020366
-0.098173335 0.096200004 0.51800001 11086928
-0.096999057 0.096014284 0.51700002 11152715
-0.09582857 0.09582857 0.51600003 11217735
-0.09484572 0.09582857 0.51600003 11348555
-0.093680955 0.095642865 0.51500005 11348304
-0.092519999 0.095457144 0.514 11348302
-0.091540948 0.095457144 0.514 11217740
-0.090385713 0.095271431 0.51300001 11152970
-0.089408576 0.095271431 0.51300001 11152969
-0.088431433 0.095271431 0.51300001 11153227
-0.087454289 0.095271431 0.51300001 11152974
-0.086308569 0.095085718 0.51200002 11219272
-0.08533334 0.095085718 0.51200002 11218243
-0.084193341 0.094900005 0.51100004 11217222
-0.083220005 0.094900005 0.51100004 11216969
-0.082246676 0.094900005 0.51100004 11216965
-0.081114292 0.094714299 0.51000005 11151170
-0.080142863 0.094714299 0.51000005 11151169
-0.079171434 0.094714299 0.51000005 11151168
-0.078200005 0.094714299 0.51000005 11216187
-0.077228583 0.094714299 0.51000005 11151159
-0.076257147 0.094714299 0.51000005 11151931
-0.075285725 0.094714299 0.51000005 11149631
-0.074460007 0.094900005 0.51100004 11083835
-0.073486671 0.094900005 0.51100004 11083832
-0.072513342 0.094900005 0.51100004 11018294
-0.071540006 0.094900005 0.51100004 11083829
-0.070566677 0.094900005 0.51100004 11148082
-0.06959334 0.094900005 0.51100004 10951216
-0.068754286 0.095085718 0.51200002 10754607
-0.067779057 0.095085718 0.51200002 10688815
-0.06693428 0.095271431 0.51300001 10557483
-0.065957144 0.095271431 0.51300001 10490408
-0.06498 0.095271431 0.51300001 10423084
-0.064127617 0.095457144 0.514 10226480
-0.063271433 0.095642865 0.51500005 10029352
-0.062290482 0.095642865 0.51500005 9636128
-0.061309531 0.095642865 0.51500005 9177378
-0.060445715 0.09582857 0.51600003 8849444
-0.05946286 0.09582857 0.51600003 8455718
-0.058480002 0.09582857 0.51600003 8521768
-0.057608575 0.096014284 0.51700002 8654121
-0.056623809 0.096014284 0.51700002 8917547
-0.055746667 0.096200004 0.51800001 9179945
-0.054865718 0.096385725 0.51900005 9376296
-0.053877149 0.096385725 0.51900005 9638181
-0.053092383 0.096757151 0.52100003 9834786
-0.052100003 0.096757151 0.52100003 10031395
-0.051303808 0.09712857 0.523 10096932
-0.05030762 0.09712857 0.523 10162727
-0.049311429 0.09712857 0.523 10162218
-0.048592385 0.097685717 0.52600002 10226731
-0.047861908 0.098242864 0.52900004 10161196
-0.04694286 0.098428577 0.53000003 10095660
-0.046020001 0.09861429 0.53100002 10161452
-0.045093331 0.098799996 0.53200001 10295097
-0.04408 0.098799996 0.53200001 7870535
-0.043066666 0.098799996 0.53200001 5513814
-0.042053334 0.098799996 0.53200001 3549285
-0.041117147 0.098985724 0.53300005 1648998
-0.040101908 0.098985724 0.53300005 1977448
-0.039233338 0.099357143 0.53500003 2370920
-0.038285714 0.099542864 0.53600001 2239336
-0.037264764 0.099542864 0.53600001 2108007
-0.036243808 0.099542864 0.53600001 2304614
-0.035222858 0.099542864 0.53600001 2435687
-0.034201905 0.099542864 0.53600001 2239081
-0.11894095 0.10056381 0.53600001 9640237
-0.1177 0.1003762 0.53500003 9771567
-0.11668096 0.1003762 0.53500003 9967408
-0.11566191 0.1003762 0.53500003 10097969
-0.11464287 0.1003762 0.53500003 10229300
-0.11341143 0.10018858 0.53400004 10360631
-0.11239429 0.10018858 0.53400004 10492217
-0.11137715 0.10018858 0.53400004 10624828
-0.11015334 0.10000096 0.53300005 10822463
-0.1091381 0.10000096 0.53300005 10822466
-0.10812287 0.10000096 0.53300005 10823493
-0.10710763 0.10000096 0.53300005 10889801
-0.10350477 0.097561911 0.52000004 11021134
-0.10251429 0.097561911 0.52000004 11021907
-0.10152382 0.097561911 0.52000004 11021391
-0.10053334 0.097561911 0.52000004 11021131
-0.099160001 0.097186662 0.51800001 11020618
-0.097983815 0.096999057 0.51700002 11021385
-0.096999057 0.096999057 0.51700002 11087174
-0.09582857 0.096811436 0.51600003 11151172
-0.09484572 0.096811436 0.51600003 11216967
-0.093680955 0.096623816 0.51500005 11283787
-0.092519999 0.096436195 0.514 11413574
-0.091362856 0.096248575 0.51300001 11413314
-0.090385713 0.096248575 0.51300001 11413569
-0.089408576 0.096248575 0.51300001 11283008
-0.088431433 0.096248575 0.51300001 11152450
-0.087454289 0.096248575 0.51300001 11152708
-0.086308569 0.096060954 0.51200002 11151938
-0.08516667 0.095873341 0.51100004 11085888
-0.084193341 0.095873341 0.51100004 11020097
-0.083220005 0.095873341 0.51100004 11085633
-0.082085721 0.09568572 0.51000005 11150913
-0.081114292 0.09568572 0.51000005 11148865
-0.080142863 0.09568572 0.51000005 11149887
-0.079171434 0.09568572 0.51000005 11216702
-0.078200005 0.09568572 0.51000005 11281979
-0.077228583 0.09568572 0.51000005 11216441
-0.076257147 0.09568572 0.51000005 11216189
-0.075285725 0.09568572 0.51000005 11150401
-0.074460007 0.095873341 0.51100004 11148860
-0.073486671 0.095873341 0.51100004 11083320
-0.072513342 0.095873341 0.51100004 11083318
-0.071540006 0.095873341 0.51100004 11149877
-0.070566677 0.095873341 0.51100004 11278897
-0.06959334 0.095873341 0.51100004 11017517
-0.068754286 0.096060954 0.51200002 10819890
-0.067779057 0.096060954 0.51200002 10622263
-0.06693428 0.096248575 0.51300001 10490160
-0.065957144 0.096248575 0.51300001 10423594
-0.06498 0.096248575 0.51300001 10357546
-0.064127617 0.096436195 0.514 10160938
-0.063148573 0.096436195 0.514 10029859
-0.062169522 0.096436195 0.514 9636892
-0.061190475 0.096436195 0.514 9243166
-0.060328577 0.096623816 0.51500005 8784159
-0.059347626 0.096623816 0.51500005 8324384
-0.058480002 0.096811436 0.51600003 8324896
-0.057497147 0.096811436 0.51600003 8391202
-0.056623809 0.096999057 0.51700002 8655141
-0.055639047 0.096999057 0.51700002 8917797
-0.054865718 0.097374298 0.51900005 9181733
-0.053877149 0.097374298 0.51900005 9441572
-0.053092383 0.097749531 0.52100003 9704739
-0.052299999 0.098124757 0.523 9966372
-0.051303808 0.098124757 0.523 10032422
-0.05030762 0.098124757 0.523 10097191
-0.049500003 0.098500006 0.52500004 10097192
-0.048592385 0.098687619 0.52600002 10161447
-0.047771428 0.099062853 0.528 10096422
-0.047031432 0.099625714 0.53100002 10096422
-0.046106666 0.099813335 0.53200001 10161959
-0.045093331 0.099813335 0.53200001 10295088
-0.04408 0.099813335 0.53200001 8328505
-0.043147624 0.10000096 0.53300005 6365008
-0.042132385 0.10000096 0.53300005 4007527
-0.041117147 0.10000096 0.53300005 1648488
-0.040177148 0.10018858 0.53400004 1911913
-0.039306667 0.10056381 0.53600001 2239336
-0.038285714 0.10056381 0.53600001 2173543
-0.037264764 0.10056381 0.53600001 2108007
-0.036243808 0.10056381 0.53600001 2108007
-0.035288572 0.10075143 0.537 2108008
-0.034265716 0.10075143 0.537 1976937
-0.11996191 0.10158476 0.53600001 9246505
-0.11894095 0.10158476 0.53600001 9641002
-0.11792 0.10158476 0.53600001 9837100
-0.11668096 0.10139524 0.53500003 9967919
-0.11566191 0.10139524 0.53500003 10097714
-0.11464287 0.10139524 0.53500003 10163508
-0.11362381 0.10139524 0.53500003 10294582
-0.11260477 0.10139524 0.53500003 10492471
-0.11137715 0.10120572 0.53400004 10624824
-0.11015334 0.1010162 0.53300005 10756925
-0.1091381 0.1010162 0.53300005 10822722
-0.10812287 0.1010162 0.53300005 10888774
-0.10710763 0.1010162 0.53300005 10889034
-0.10350477 0.098552391 0.52000004 10954833
-0.10251429 0.098552391 0.52000004 10889305
-0.10152382 0.098552391 0.52000004 10824017
-0.10053334 0.098552391 0.52000004 10954825
-0.099160001 0.098173335 0.51800001 11020102
-0.097983815 0.097983815 0.51700002 11020867
-0.096811436 0.097794287 0.51600003 11021890
-0.09582857 0.097794287 0.51600003 11020865
-0.094661914 0.097604766 0.51500005 11085380
-0.093499042 0.097415239 0.514 11216455
-0.092519999 0.097415239 0.514 11347775
-0.091362856 0.097225718 0.51300001 11282488
-0.090385713 0.097225718 0.51300001 11282999
-0.089408576 0.097225718 0.51300001 11217719
-0.088431433 0.097225718 0.51300001 11152440
-0.087454289 0.097225718 0.51300001 11151930
-0.086308569 0.097036198 0.51200002 11086140
-0.08516667 0.096846677 0.51100004 11020094
-0.084193341 0.096846677 0.51100004 11018044
-0.08305715 0.096657157 0.51000005 11018554
-0.082085721 0.096657157 0.51000005 11084861
-0.081114292 0.096657157 0.51000005 11148864
-0.080142863 0.096657157 0.51000005 11214398
-0.079171434 0.096657157 0.51000005 11280444
-0.078200005 0.096657157 0.51000005 11412028
-0.077228583 0.096657157 0.51000005 11280444
-0.076257147 0.096657157 0.51000005 11214655
-0.075285725 0.096657157 0.51000005 11148611
-0.074314289 0.096657157 0.51000005 11082814
-0.073342867 0.096657157 0.51000005 11017273
-0.072371431 0.096657157 0.51000005 11017527
-0.071540006 0.096846677 0.51100004 11082549
-0.070566677 0.096846677 0.51100004 11082288
-0.06959334 0.096846677 0.51100004 10885419
-0.068620004 0.096846677 0.51100004 10754357
-0.067646675 0.096846677 0.51100004 10556223
-0.066803813 0.097036198 0.51200002 10423862
-0.065828577 0.097036198 0.51200002 10292525
-0.06498 0.097225718 0.51300001 10226728
-0.064002857 0.097225718 0.51300001 10095396
-0.063025713 0.097225718 0.51300001 9964318
-0.062169522 0.097415239 0.514 9702169
-0.061190475 0.097415239 0.514 9374490
-0.060211428 0.097415239 0.514 8587547
-0.05946286 0.097794287 0.51600003 7800090
-0.058480002 0.097794287 0.51600003 7997209
-0.057497147 0.097794287 0.51600003 8193820
-0.056623809 0.097983815 0.51700002 8392479
-0.055746667 0.098173335 0.51800001 8655648
-0.054760002 0.098173335 0.51800001 8983074
-0.053877149 0.098362871 0.51900005 9310755
-0.053092383 0.098741911 0.52100003 9507621
-0.052299999 0.099120952 0.523 9769254
-0.051303808 0.099120952 0.523 9835816
-0.05030762 0.099120952 0.523 9966119
-0.049500003 0.099500008 0.52500004 9966375
-0.048592385 0.099689528 0.52600002 10030627
-0.047680955 0.099879049 0.52700001 10030880
-0.047120001 0.10082667 0.53200001 10096673
-0.046106666 0.10082667 0.53200001 10162211
-0.045093331 0.10082667 0.53200001 10295079
-0.04408 0.10082667 0.53200001 8460076
-0.043147624 0.1010162 0.53300005 6626379
-0.042132385 0.1010162 0.53300005 4073066
-0.041194286 0.10120572 0.53400004 1516394
-0.040252384 0.10139524 0.53500003 1779306
-0.039233338 0.10139524 0.53500003 2107752
-0.038285714 0.10158476 0.53600001 2042471
-0.037264764 0.10158476 0.53600001 2041960
-0.036311429 0.10177428 0.537 2041961
-0.035288572 0.10177428 0.537 2041705
-0.034265716 0.10177428 0.537 1910889
-0.11996191 0.10260572 0.53600001 9246513
-0.11894095 0.10260572 0.53600001 9706799
-0.11792 0.10260572 0.53600001 9837101
-0.11689905 0.10260572 0.53600001 10032943
-0.1158781 0.10260572 0.53600001 10097712
-0.11485714 0.10260572 0.53600001 10163252
-0.11362381 0.10241429 0.53500003 10294327
-0.11260477 0.10241429 0.53500003 10491959
-0.11158572 0.10241429 0.53500003 10624824
-0.11036 0.10222286 0.53400004 10757436
-0.10934286 0.10222286 0.53400004 10823232
-0.10832573 0.10222286 0.53400004 10954307
-0.10730858 0.10222286 0.53400004 10889031
-0.10350477 0.099542871 0.52000004 10889291
-0.10251429 0.099542871 0.52000004 10757456
-0.10152382 0.099542871 0.52000004 10691659
-0.10034001 0.099351436 0.51900005 10888261
-0.099160001 0.099160001 0.51800001 11085635
-0.097983815 0.09896858 0.51700002 11020608
-0.096811436 0.098777145 0.51600003 11021377
-0.09582857 0.098777145 0.51600003 10957122
-0.094661914 0.098585717 0.51500005 10951987
-0.093499042 0.09839429 0.514 11076388
-0.092519999 0.09839429 0.514 11282481
-0.091362856 0.098202854 0.51300001 11226430
-0.090385713 0.098202854 0.51300001 11223095
-0.089408576 0.098202854 0.51300001 11219760
-0.088431433 0.098202854 0.51300001 11218483
-0.087283812 0.098011427 0.51200002 11151671
-0.086140007 0.097820006 0.51100004 11085880
-0.08516667 0.097820006 0.51100004 11020089
-0.084193341 0.097820006 0.51100004 11017528
-0.08305715 0.097628579 0.51000005 11017271
-0.082085721 0.097628579 0.51000005 11017529
-0.081114292 0.097628579 0.51000005 11148860
-0.080142863 0.097628579 0.51000005 11279931
-0.079171434 0.097628579 0.51000005 11411513
-0.078200005 0.097628579 0.51000005 11542841
-0.077228583 0.097628579 0.51000005 11346489
-0.076257147 0.097628579 0.51000005 11214139
-0.075285725 0.097628579 0.51000005 11083069
-0.074314289 0.097628579 0.51000005 11017274
-0.073342867 0.097628579 0.51000005 11017015
-0.072371431 0.097628579 0.51000005 11017012
-0.071400009 0.097628579 0.51000005 10951474
-0.070428573 0.097628579 0.51000005 10950704
-0.069457151 0.097628579 0.51000005 10819118
-0.068620004 0.097820006 0.51100004 10687538
-0.067646675 0.097820006 0.51100004 10490422
-0.066803813 0.098011427 0.51200002 10358576
-0.065957144 0.098202854 0.51300001 10226987
-0.06498 0.098202854 0.51300001 10095656
-0.064002857 0.098202854 0.51300001 10030116
-0.063025713 0.098202854 0.51300001 9964574
-0.062169522 0.09839429 0.514 9768216
-0.061190475 0.09839429 0.514 9571352
-0.060211428 0.09839429 0.514 8456728
-0.059347626 0.098585717 0.51500005 7342360
-0.058480002 0.098777145 0.51600003 7670040
-0.057608575 0.09896858 0.51700002 7997466
-0.056623809 0.09896858 0.51700002 8195357
-0.055746667 0.099160001 0.51800001 8457760
-0.054865718 0.099351436 0.51900005 8785699
-0.053877149 0.099351436 0.51900005 9179173
-0.053092383 0.099734291 0.52100003 9376808
-0.052299999 0.10011714 0.523 9573163
-0.051401909 0.10030858 0.52400005 9704751
-0.050500005 0.10050001 0.52500004 9835563
-0.049594287 0.10069143 0.52600002 9835559
-0.048684761 0.10088286 0.52700001 9900837
-0.047680955 0.10088286 0.52700001 9966115
-0.047120001 0.10184 0.53200001 10096933
-0.046106666 0.10184 0.53200001 10228007
-0.0451781 0.10203144 0.53300005 10360109
-0.044162862 0.10203144 0.53300005 8591666
-0.043228574 0.10222286 0.53400004 6889291
-0.042211432 0.10222286 0.53400004 4138596
-0.04127143 0.10241429 0.53500003 1385830
-0.040252384 0.10241429 0.53500003 1713512
-0.039306667 0.10260572 0.53600001 2042215
-0.038285714 0.10260572 0.53600001 1976933
-0.037264764 0.10260572 0.53600001 1976678
-0.036311429 0.10279714 0.537 1976679
-0.035288572 0.10279714 0.537 1976422
-0.034329526 0.10298858 0.53800005 1779814
-0.033304762 0.10298858 0.53800005 1649254
-0.11996191 0.10362667 0.53600001 9116218
-0.11894095 0.10362667 0.53600001 9575988
-0.11792 0.10362667 0.53600001 9771823
-0.11689905 0.10362667 0.53600001 10032431
-0.1158781 0.10362667 0.53600001 10097455
-0.11485714 0.10362667 0.53600001 10161972
-0.11383619 0.10362667 0.53600001 10294073
-0.11281524 0.10362667 0.53600001 10425912
-0.11158572 0.10343333 0.53500003 10559544
-0.11056668 0.10343333 0.53500003 10757947
-0.10954763 0.10343333 0.53500003 10888510
-0.10852857 0.10343333 0.53500003 11019329
-0.10771047 0.10362667 0.53600001 10954564
-0.10668953 0.10362667 0.53600001 10954822
-0.10251429 0.10053334 0.52000004 10889032
-0.10152382 0.10053334 0.52000004 10821701
-0.10034001 0.10034001 0.51900005 11019330
-0.099160001 0.10014667 0.51800001 11216704
-0.097983815 0.099953339 0.51700002 11086142
-0.096811436 0.099760011 0.51600003 10955585
-0.095642865 0.099566668 0.51500005 10821700
-0.094661914 0.099566668 0.51500005 10687779
-0.093499042 0.099373333 0.514 12014850
-0.09234 0.099179998 0.51300001 13276451
-0.091362856 0.099179998 0.51300001 13207620
-0.090385713 0.099179998 0.51300001 13138743
-0.089408576 0.099179998 0.51300001 11874858
-0.088259049 0.09898667 0.51200002 10688815
-0.087283812 0.09898667 0.51200002 10820916
-0.086140007 0.098793343 0.51100004 10953268
-0.08516667 0.098793343 0.51100004 10952501
-0.084028579 0.098600008 0.51000005 10951732
-0.08305715 0.098600008 0.51000005 11016756
-0.082085721 0.098600008 0.51000005 11015478
-0.081114292 0.098600008 0.51000005 11082041
-0.080142863 0.098600008 0.51000005 11214392
-0.079171434 0.098600008 0.51000005 11279671
-0.078200005 0.098600008 0.51000005 11344951
-0.077228583 0.098600008 0.51000005 11279415
-0.076257147 0.098600008 0.51000005 11213879
-0.075285725 0.098600008 0.51000005 11082295
-0.074314289 0.098600008 0.51000005 11016246
-0.073342867 0.098600008 0.51000005 10950965
-0.072371431 0.098600008 0.51000005 10951218
-0.071400009 0.098600008 0.51000005 10819631
-0.070428573 0.098600008 0.51000005 10687792
-0.069457151 0.098600008 0.51000005 10621489
-0.068485714 0.098600008 0.51000005 10555439
-0.067646675 0.098793343 0.51100004 10359341
-0.066673338 0.098793343 0.51100004 10162475
-0.065828577 0.09898667 0.51200002 10031402
-0.06498 0.099179998 0.51300001 9965863
-0.064002857 0.099179998 0.51300001 9900325
-0.063025713 0.099179998 0.51300001 9834782
-0.062048573 0.099179998 0.51300001 9637656
-0.061190475 0.099373333 0.514 9506070
-0.060211428 0.099373333 0.514 8260117
-0.059347626 0.099566668 0.51500005 7079702
-0.058480002 0.099760011 0.51600003 7407895
-0.057497147 0.099760011 0.51600003 7670041
-0.056623809 0.099953339 0.51700002 7932443
-0.055746667 0.10014667 0.51800001 8260640
-0.054760002 0.10014667 0.51800001 8588581
-0.053877149 0.10034001 0.51900005 8982056
-0.052990478 0.10053334 0.52000004 9114411
-0.052299999 0.10111333 0.523 9310769
-0.051500004 0.1015 0.52500004 9507639
-0.050596192 0.10169334 0.52600002 9639215
-0.04968857 0.10188667 0.52700001 9704743
-0.048684761 0.10188667 0.52700001 9770534
-0.047680955 0.10188667 0.52700001 9901862
-0.047120001 0.10285334 0.53200001 10033449
-0.046193339 0.10304668 0.53300005 10164268
-0.0451781 0.10304668 0.53300005 10297394
-0.044245716 0.10324001 0.53400004 8462649
-0.043228574 0.10324001 0.53400004 6628171
-0.042211432 0.10324001 0.53400004 3941726
-0.04127143 0.10343333 0.53500003 1319010
-0.04032762 0.10362667 0.53600001 1648487
-0.039306667 0.10362667 0.53600001 1976933
-0.038285714 0.10362667 0.53600001 1976932
-0.037264764 0.10362667 0.53600001 1976932
-0.036243808 0.10362667 0.53600001 1976933
-0.035288572 0.10382 0.537 1976932
-0.034329526 0.10401335 0.53800005 1845347
-0.033366669 0.10420667 0.53900003 1780835
-0.032400001 0.1044 0.54000002 1780580
-0.11996191 0.10464762 0.53600001 8985904
-0.11894095 0.10464762 0.53600001 9510447
-0.11792 0.10464762 0.53600001 9772078
-0.11689905 0.10464762 0.53600001 10031918
-0.1158781 0.10464762 0.53600001 10097454
-0.11485714 0.10464762 0.53600001 10162994
-0.11383619 0.10464762 0.53600001 10228535
-0.11281524 0.10464762 0.53600001 10360630
-0.11179429 0.10464762 0.53600001 10560054
-0.11077333 0.10464762 0.53600001 10822458
-0.10975239 0.10464762 0.53600001 10953790
-0.10873143 0.10464762 0.53600001 11084865
-0.10771047 0.10464762 0.53600001 11085637
-0.10668953 0.10464762 0.53600001 11085640
-0.10231715 0.10132858 0.51900005 11020620
-0.10132858 0.10132858 0.51900005 11019846
-0.10034001 0.10132858 0.51900005 11150401
-0.099351436 0.10132858 0.51900005 11347007
-0.097794287 0.10074286 0.51600003 11150398
-0.096811436 0.10074286 0.51600003 10953273
-0.095642865 0.10054763 0.51500005 10686517
-0.094478101 0.10035238 0.514 10488630
-0.093499042 0.10035238 0.514 12883767
-0.09234 0.10015714 0.51300001 15309119
-0.091362856 0.10015714 0.51300001 15178823
-0.090385713 0.10015714 0.51300001 15113273
-0.089234293 0.099961907 0.51200002 12595499
-0.088259049 0.099961907 0.51200002 10168111
-0.087113343 0.099766672 0.51100004 10493492
-0.086140007 0.099766672 0.51100004 10886196
-0.085000008 0.099571437 0.51000005 10885940
-0.084028579 0.099571437 0.51000005 10950963
-0.08305715 0.099571437 0.51000005 11016243
-0.082085721 0.099571437 0.51000005 11080757
-0.081114292 0.099571437 0.51000005 11081016
-0.080142863 0.099571437 0.51000005 11147320
-0.079171434 0.099571437 0.51000005 11148087
-0.078200005 0.099571437 0.51000005 11213367
-0.077228583 0.099571437 0.51000005 11213367
-0.076257147 0.099571437 0.51000005 11212853
-0.075285725 0.099571437 0.51000005 11081524
-0.074314289 0.099571437 0.51000005 11015731
-0.073342867 0.099571437 0.51000005 10949938
-0.072371431 0.099571437 0.51000005 10884398
-0.071400009 0.099571437 0.51000005 10688042
-0.070428573 0.099571437 0.51000005 10490412
-0.069457151 0.099571437 0.51000005 10424366
-0.068485714 0.099571437 0.51000005 10424364
-0.067646675 0.099766672 0.51100004 10228267
-0.066673338 0.099766672 0.51100004 10031402
-0.065828577 0.099961907 0.51200002 9901865
-0.06498 0.10015714 0.51300001 9836839
-0.063878104 0.099961907 0.51200002 9771814
-0.063025713 0.10015714 0.51300001 9771550
-0.062048573 0.10015714 0.51300001 9574934
-0.061190475 0.10035238 0.514 9440276
-0.060328577 0.10054763 0.51500005 8129299
-0.059347626 0.10054763 0.51500005 6883862
-0.058480002 0.10074286 0.51600003 7145754
-0.057497147 0.10074286 0.51600003 7407899
-0.056733333 0.10113333 0.51800001 7735580
-0.055746667 0.10113333 0.51800001 8063776
-0.054865718 0.10132858 0.51900005 8391971
-0.053877149 0.10132858 0.51900005 8784678
-0.052990478 0.10152382 0.52000004 8917801
-0.052100003 0.10171905 0.52100003 9114414
-0.051107619 0.10171905 0.52100003 9312819
-0.050596192 0.10269524 0.52600002 9509165
-0.049594287 0.10269524 0.52600002 9574696
-0.048684761 0.10289048 0.52700001 9705769
-0.047680955 0.10289048 0.52700001 9837099
-0.047297146 0.10425715 0.53400004 9967918
-0.04628 0.10425715 0.53400004 10098738
-0.045262862 0.10425715 0.53400004 10298170
-0.044328574 0.10445238 0.53500003 8332610
-0.043309525 0.10445238 0.53500003 6366544
-0.042290479 0.10445238 0.53500003 3810653
-0.041348573 0.10464762 0.53600001 1253216
-0.04032762 0.10464762 0.53600001 1583459
-0.039306667 0.10464762 0.53600001 1911137
-0.038285714 0.10464762 0.53600001 1911392
-0.037264764 0.10464762 0.53600001 1976673
-0.036243808 0.10464762 0.53600001 1977443
-0.035288572 0.10484286 0.537 1976930
-0.034393337 0.10523334 0.53900003 1976673
-0.033366669 0.10523334 0.53900003 1976673
-0.032520004 0.10581905 0.54200006 1976930
-0.11996191 0.10566857 0.53600001 8788775
-0.11894095 0.10566857 0.53600001 9575978
-0.11792 0.10566857 0.53600001 9706030
-0.11689905 0.10566857 0.53600001 9900590
-0.1158781 0.10566857 0.53600001 10031918
