# .PCD v0.7 - Point Cloud Data file format
VERSION 0.7
FIELDS x y z rgba
SIZE 4 4 4 4
TYPE F F F U
COUNT 1 1 1 1
WIDTH 1097
HEIGHT 1
VIEWPOINT 0 0 0 1 0 0 0
POINTS 1097
DATA ascii
-0.054079998 0.09048 0.546 6703637
-0.053720001 0.091640003 0.55300003 6772290
-0.052380953 0.091142863 0.55000001 8156272
-0.051520005 0.091474287 0.55200005 9607795
-0.050560005 0.091640003 0.55300003 9738359
-0.049685717 0.091971427 0.55500001 9934461
-0.048628572 0.091971427 0.55500001 10196868
-0.047571428 0.091971427 0.55500001 10525060
-0.046933331 0.092799999 0.56 9737604
-0.045866664 0.092799999 0.56 9015412
-0.11250286 0.092525721 0.55200005 10592148
-0.11104763 0.092190482 0.55000001 10657939
-0.11 0.092190482 0.55000001 10723728
-0.1085562 0.091855243 0.54800004 10854541
-0.1073162 0.091687627 0.54700005 11050890
-0.10588571 0.091352388 0.54500002 11050632
-0.10446287 0.091017149 0.54300004 11116676
-0.10323811 0.090849534 0.54200006 11249279
-0.10220572 0.090849534 0.54200006 11379831
-0.10117334 0.090849534 0.54200006 11183471
-0.099956192 0.090681911 0.54100001 11052148
-0.098742865 0.090514287 0.54000002 11183225
-0.097533338 0.090346672 0.53900003 11310436
-0.096148573 0.090011425 0.537 9995855
-0.094948567 0.08984381 0.53600001 8683604
-0.093927622 0.08984381 0.53600001 9141081
-0.092906669 0.08984381 0.53600001 9666136
-0.091885716 0.08984381 0.53600001 9208407
-0.090864763 0.08984381 0.53600001 8810836
-0.08984381 0.08984381 0.53600001 8544592
-0.088822857 0.08984381 0.53600001 8347721
-0.087638095 0.089676194 0.53500003 8019777
-0.086619049 0.089676194 0.53500003 7686703
-0.08309333 0.089173339 0.53200001 5583649
-0.08192572 0.089005716 0.53100002 5322025
-0.08060953 0.088670477 0.52900004 5060402
-0.079601914 0.088670477 0.52900004 4796457
-0.079040006 0.089173339 0.53200001 4532512
-0.078026667 0.089173339 0.53200001 4275477
-0.077013329 0.089173339 0.53200001 3871754
-0.076000005 0.089173339 0.53200001 3552807
-0.074986666 0.089173339 0.53200001 4670276
-0.073973328 0.089173339 0.53200001 5851448
-0.07323429 0.089508578 0.53400004 5918508
-0.072081909 0.089340955 0.53300005 6050094
-0.071199998 0.089508578 0.53400004 6050609
-0.070051439 0.089340955 0.53300005 6116915
-0.069424763 0.08984381 0.53600001 5585206
-0.068276189 0.089676194 0.53500003 5059120
-0.067257144 0.089676194 0.53500003 4860971
-0.065990485 0.089340955 0.53300005 4664353
-0.064609528 0.0888381 0.53000003 4402454
-0.064560011 0.090179056 0.53800005 4141865
-0.063535243 0.090179056 0.53800005 4995643
-0.062626667 0.090346672 0.53900003 5913142
-0.061600007 0.090346672 0.53900003 5716785
-0.060798097 0.090681911 0.54100001 5519145
-0.0598781 0.090849534 0.54200006 5583649
-0.058845717 0.090849534 0.54200006 5649185
-0.057813339 0.090849534 0.54200006 6370337
-0.056885716 0.091017149 0.54300004 7098670
-0.055954289 0.091184765 0.54400003 7761724
-0.055019047 0.091352388 0.54500002 8414526
-0.05417905 0.091687627 0.54700005 8543297
-0.053428572 0.092190482 0.55000001 8680539
-0.052380953 0.092190482 0.55000001 9538677
-0.051520005 0.092525721 0.55200005 10460024
-0.050560005 0.092693336 0.55300003 10262140
-0.049685717 0.093028568 0.55500001 10131589
-0.048628572 0.093028568 0.55500001 10395791
-0.047742862 0.093363814 0.55700004 10721670
-0.046849523 0.093699045 0.55900002 9474941
-0.045784764 0.093699045 0.55900002 8289367
-0.11376 0.09374667 0.55300003 10393493
-0.11270668 0.09374667 0.55300003 10592407
-0.11145144 0.093577154 0.55200005 10723738
-0.11040001 0.093577154 0.55200005 10855316
-0.10875428 0.093068577 0.54900002 10985870
-0.10712 0.092560001 0.546 11116683
-0.10608 0.092560001 0.546 11051400
-0.10446287 0.092051432 0.54300004 10986126
-0.10323811 0.091881916 0.54200006 11182740
-0.10220572 0.091881916 0.54200006 11313816
-0.10117334 0.091881916 0.54200006 11183516
-0.099956192 0.091712385 0.54100001 10986393
-0.098742865 0.091542862 0.54000002 11051670
-0.09771429 0.091542862 0.54000002 11118992
-0.096327633 0.091203816 0.53800005 10395786
-0.09512572 0.091034286 0.537 9672838
-0.094102852 0.091034286 0.537 9804674
-0.093079999 0.091034286 0.537 10002046
-0.091885716 0.090864763 0.53600001 9803643
-0.090864763 0.090864763 0.53600001 9670769
-0.08984381 0.090864763 0.53600001 9605223
-0.088822857 0.090864763 0.53600001 9539680
-0.087801903 0.090864763 0.53600001 9343066
-0.08678095 0.090864763 0.53600001 9212232
-0.085760005 0.090864763 0.53600001 8619831
-0.084580958 0.09069524 0.53500003 8027695
-0.083249532 0.090356201 0.53300005 7762471
-0.082234293 0.090356201 0.53300005 7497516
-0.081371427 0.090525724 0.53400004 7363633
-0.080354296 0.090525724 0.53400004 7229982
-0.079188578 0.090356201 0.53300005 7031564
-0.078173339 0.090356201 0.53300005 6833158
-0.077013329 0.090186663 0.53200001 6372097
-0.076000005 0.090186663 0.53200001 5911082
-0.074986666 0.090186663 0.53200001 6775124
-0.073973328 0.090186663 0.53200001 7633737
-0.073097147 0.090356201 0.53300005 7632447
-0.072081909 0.090356201 0.53300005 7696692
-0.071066678 0.090356201 0.53300005 7498025
-0.070051439 0.090356201 0.53300005 7365168
-0.069424763 0.090864763 0.53600001 7231799
-0.068276189 0.09069524 0.53500003 7032876
-0.067634292 0.091203816 0.53800005 6900002
-0.066361904 0.090864763 0.53600001 6767122
-0.06570667 0.091373339 0.53900003 6240259
-0.064680003 0.091373339 0.53900003 5713443
-0.063653335 0.091373339 0.53900003 6641987
-0.062626667 0.091373339 0.53900003 7631174
-0.061714288 0.091542862 0.54000002 7564361
-0.060798097 0.091712385 0.54100001 7563071
-0.0598781 0.091881916 0.54200006 7761462
-0.058845717 0.091881916 0.54200006 7959868
-0.057920005 0.092051432 0.54300004 8421698
-0.057095237 0.092390478 0.54500002 8883790
-0.056057144 0.092390478 0.54500002 9146714
-0.055119999 0.092560001 0.546 9409892
-0.054278098 0.092899054 0.54800004 9410414
-0.053428572 0.093238093 0.55000001 9476724
-0.05247619 0.093407623 0.551 9935739
-0.051520005 0.093577154 0.55200005 10394750
-0.050651431 0.093916193 0.55400002 10460033
-0.049685717 0.094085716 0.55500001 10591117
-0.048628572 0.094085716 0.55500001 10789018
-0.047657147 0.094255246 0.55600005 10987400
-0.046765719 0.094594292 0.55800003 9737590
-0.04570286 0.094594292 0.55800003 8481083
-0.11502095 0.094971426 0.55400002 10525851
-0.11376 0.09480001 0.55300003 10589328
-0.11270668 0.09480001 0.55300003 10655381
-0.11165334 0.09480001 0.55300003 10856602
-0.11040001 0.09462858 0.55200005 11052438
-0.10895238 0.094285712 0.55000001 11117201
-0.10790476 0.094285712 0.55000001 11183245
-0.1062743 0.093771435 0.54700005 11052682
-0.10446287 0.093085721 0.54300004 10920335
-0.10342857 0.093085721 0.54300004 11116437
-0.10220572 0.092914298 0.54200006 11313560
-0.10117334 0.092914298 0.54200006 11117980
-0.10014096 0.092914298 0.54200006 10985879
-0.098925717 0.09274286 0.54100001 10920083
-0.09771429 0.09257143 0.54000002 10920334
-0.096685715 0.09257143 0.54000002 10789513
-0.095480002 0.092399999 0.53900003 10722696
-0.094278105 0.092228584 0.53800005 10525575
-0.093079999 0.092057146 0.537 10328966
-0.092057146 0.092057146 0.537 10460037
-0.090864763 0.091885716 0.53600001 10590335
-0.08984381 0.091885716 0.53600001 10655352
-0.088822857 0.091885716 0.53600001 10721909
-0.087801903 0.091885716 0.53600001 10723186
-0.08678095 0.091885716 0.53600001 10723180
-0.085760005 0.091885716 0.53600001 10461029
-0.084739052 0.091885716 0.53600001 10193758
-0.083561912 0.091714285 0.53500003 9928791
-0.082388572 0.091542862 0.53400004 9732697
-0.081371427 0.091542862 0.53400004 9667676
-0.080354296 0.091542862 0.53400004 9666896
-0.079188578 0.091371439 0.53300005 9535300
-0.078173339 0.091371439 0.53300005 9399613
-0.077158101 0.091371439 0.53300005 8870710
-0.076142862 0.091371439 0.53300005 8351055
-0.075127631 0.091371439 0.53300005 8879977
-0.074112386 0.091371439 0.53300005 9405283
-0.073097147 0.091371439 0.53300005 9343069
-0.072081909 0.091371439 0.53300005 9340502
-0.071199998 0.091542862 0.53400004 9010511
-0.070182867 0.091542862 0.53400004 8682321
-0.069424763 0.091885716 0.53600001 8878419
-0.06840381 0.091885716 0.53600001 9075276
-0.067508571 0.092057146 0.537 8944710
-0.06648571 0.092057146 0.537 8872249
-0.06570667 0.092399999 0.53900003 8078893
-0.064680003 0.092399999 0.53900003 7298881
-0.063653335 0.092399999 0.53900003 8354133
-0.062742859 0.09257143 0.54000002 9403740
-0.061714288 0.09257143 0.54000002 9472355
-0.060798097 0.09274286 0.54100001 9603167
-0.0598781 0.092914298 0.54200006 9930843
-0.058845717 0.092914298 0.54200006 10326879
-0.057920005 0.093085721 0.54300004 10526308
-0.057095237 0.093428575 0.54500002 10722153
-0.056057144 0.093428575 0.54500002 10524783
-0.055220958 0.093771435 0.54700005 10393202
-0.054278098 0.093942866 0.54800004 10327413
-0.053428572 0.094285712 0.55000001 10262650
-0.05247619 0.094457142 0.551 10328958
-0.051520005 0.09462858 0.55200005 10394754
-0.050651431 0.094971426 0.55400002 10722951
-0.04959619 0.094971426 0.55400002 11050895
-0.048628572 0.095142856 0.55500001 11116952
-0.047657147 0.095314294 0.55600005 11248515
-0.046598099 0.095314294 0.55600005 9934703
-0.04570286 0.095657147 0.55800003 8675644
-0.11502095 0.096026666 0.55400002 10395804
-0.11376 0.095853336 0.55300003 10524299
-0.11270668 0.095853336 0.55300003 10653075
-0.11165334 0.095853336 0.55300003 10195099
-0.1106 0.095853336 0.55300003 9802648
-0.10954668 0.095853336 0.55300003 10264213
-0.1073162 0.094813339 0.54700005 10660496
-0.1062743 0.094813339 0.54700005 10724748
-0.10446287 0.094120003 0.54300004 10789009
-0.10323811 0.09394668 0.54200006 10920086
-0.10220572 0.09394668 0.54200006 11051161
-0.10117334 0.09394668 0.54200006 10985628
-0.10014096 0.09394668 0.54200006 10920086
-0.098925717 0.093773328 0.54100001 10854544
-0.09771429 0.093600005 0.54000002 10853772
-0.096685715 0.093600005 0.54000002 10788489
-0.095480002 0.093426675 0.53900003 10723210
-0.094278105 0.093253337 0.53800005 10590860
-0.093079999 0.093079999 0.537 10393486
-0.092057146 0.093079999 0.537 10459792
-0.090864763 0.092906669 0.53600001 10460813
-0.08984381 0.092906669 0.53600001 10460554
-0.088822857 0.092906669 0.53600001 10526090
-0.087801903 0.092906669 0.53600001 10460299
-0.08678095 0.092906669 0.53600001 10460047
-0.085760005 0.092906669 0.53600001 10263188
-0.084739052 0.092906669 0.53600001 10066317
-0.083561912 0.092733338 0.53500003 9998983
-0.082388572 0.092560001 0.53400004 9931911
-0.081523813 0.092733338 0.53500003 9867912
-0.080354296 0.092560001 0.53400004 9869698
-0.079188578 0.092386678 0.53300005 9803901
-0.078173339 0.092386678 0.53300005 9672820
-0.077158101 0.092386678 0.53300005 9606507
-0.076142862 0.092386678 0.53300005 9474676
-0.075268574 0.092560001 0.53400004 9473662
-0.074112386 0.092386678 0.53300005 9538428
-0.07323429 0.092560001 0.53400004 9473403
-0.07235238 0.092733338 0.53500003 9408888
-0.071466669 0.092906669 0.53600001 9209974
-0.070445716 0.092906669 0.53600001 9076594
-0.069424763 0.092906669 0.53600001 9143407
-0.06840381 0.092906669 0.53600001 9210221
-0.067634292 0.093253337 0.53800005 9210219
-0.066609524 0.093253337 0.53800005 9210209
-0.06570667 0.093426675 0.53900003 9013591
-0.064800002 0.093600005 0.54000002 8817247
-0.063771427 0.093600005 0.54000002 9143655
-0.062742859 0.093600005 0.54000002 9535858
-0.061828569 0.093773328 0.54100001 9603965
-0.060798097 0.093773328 0.54100001 9734526
-0.0598781 0.09394668 0.54200006 9997952
-0.058845717 0.09394668 0.54200006 10328451
-0.057920005 0.094120003 0.54300004 10526343
-0.057095237 0.094466671 0.54500002 10723973
-0.056057144 0.094466671 0.54500002 10526084
-0.055220958 0.094813339 0.54700005 10393472
-0.054278098 0.09498667 0.54800004 10327677
-0.053331427 0.095160007 0.54900002 10196607
-0.052380953 0.09533333 0.55000001 10328962
-0.051426668 0.095506661 0.551 10461575
-0.050468575 0.095680006 0.55200005 10725005
-0.04959619 0.096026666 0.55400002 11054226
-0.048453335 0.095853336 0.55300003 10460567
-0.047400005 0.095853336 0.55300003 9871231
-0.046346668 0.095853336 0.55300003 7896168
-0.11502095 0.097081907 0.55400002 10323342
-0.11396571 0.097081907 0.55400002 10449027
-0.11291048 0.097081907 0.55400002 10644607
-0.11165334 0.096906669 0.55300003 9595004
-0.11040001 0.096731439 0.55200005 8614013
-0.10915048 0.096556194 0.551 9402750
-0.10810095 0.096556194 0.551 10191498
-0.10588571 0.095504768 0.54500002 10455958
-0.10446287 0.095154293 0.54300004 10723224
-0.10323811 0.094979055 0.54200006 10791065
-0.10220572 0.094979055 0.54200006 10855575
-0.10117334 0.094979055 0.54200006 10854805
-0.099956192 0.09480381 0.54100001 10920337
-0.098925717 0.09480381 0.54100001 10854797
-0.09771429 0.094628572 0.54000002 10789003
-0.09650667 0.094453342 0.53900003 10788745
-0.095480002 0.094453342 0.53900003 10788235
-0.094278105 0.094278105 0.53800005 10656397
-0.093079999 0.094102852 0.537 10525324
-0.091885716 0.093927622 0.53600001 10459788
-0.090864763 0.093927622 0.53600001 10394506
-0.08984381 0.093927622 0.53600001 10329224
-0.088822857 0.093927622 0.53600001 10329224
-0.087801903 0.093927622 0.53600001 10261128
-0.08678095 0.093927622 0.53600001 10196106
-0.085760005 0.093927622 0.53600001 10065804
-0.084739052 0.093927622 0.53600001 9999496
-0.083561912 0.093752384 0.53500003 10064517
-0.082542859 0.093752384 0.53500003 10130055
-0.081371427 0.093577147 0.53400004 10131849
-0.080354296 0.093577147 0.53400004 10131332
-0.079188578 0.093401909 0.53300005 10065534
-0.078173339 0.093401909 0.53300005 9999999
-0.077158101 0.093401909 0.53300005 10327936
-0.076142862 0.093401909 0.53300005 10654590
-0.075268574 0.093577147 0.53400004 10130301
-0.074112386 0.093401909 0.53300005 9669756
-0.073371425 0.093752384 0.53500003 9538427
-0.072487615 0.093927622 0.53600001 9473656
-0.071466669 0.093927622 0.53600001 9474677
-0.070445716 0.093927622 0.53600001 9473650
-0.069424763 0.093927622 0.53600001 9407087
-0.068531431 0.094102852 0.537 9406575
-0.067634292 0.094278105 0.53800005 9471343
-0.066733338 0.094453342 0.53900003 9537900
-0.06570667 0.094453342 0.53900003 9934698
-0.064680003 0.094453342 0.53900003 10326896
-0.063771427 0.094628572 0.54000002 9998454
-0.062742859 0.094628572 0.54000002 9670266
-0.061714288 0.094628572 0.54000002 9735550
-0.060798097 0.09480381 0.54100001 9867648
-0.059767619 0.09480381 0.54100001 10065282
-0.058845717 0.094979055 0.54200006 10328454
-0.057920005 0.095154293 0.54300004 10526345
-0.056990478 0.095329531 0.54400003 10723976
-0.056057144 0.095504768 0.54500002 10592904
-0.055119999 0.095680006 0.546 10460805
-0.05417905 0.095855244 0.54700005 10328707
-0.05323429 0.096030481 0.54800004 10197636
-0.052285716 0.096205719 0.54900002 10394502
-0.051426668 0.096556194 0.551 10592903
-0.050560005 0.096906669 0.55300003 10791560
-0.049685717 0.097257145 0.55500001 11051396
-0.048628572 0.097257145 0.55500001 9738624
-0.047571428 0.097257145 0.55500001 8483674
-0.046514284 0.097257145 0.55500001 5852724
-0.11522857 0.098314285 0.55500001 9129599
-0.11396571 0.098137148 0.55400002 9329531
-0.11291048 0.098137148 0.55400002 9595244
-0.11165334 0.09796001 0.55300003 9000030
-0.1106 0.09796001 0.55300003 8470370
-0.10915048 0.097605713 0.551 8802919
-0.10770857 0.09725143 0.54900002 9135748
-0.1062743 0.096897155 0.54700005 9599393
-0.10446287 0.096188575 0.54300004 10067871
-0.10323811 0.096011437 0.54200006 10396573
-0.10220572 0.096011437 0.54200006 10725270
-0.10117334 0.096011437 0.54200006 10856079
-0.099956192 0.095834285 0.54100001 11052429
-0.098925717 0.095834285 0.54100001 10985867
-0.09771429 0.095657147 0.54000002 10920330
-0.09650667 0.095480002 0.53900003 10789258
-0.095302865 0.095302865 0.53800005 10722444
-0.094278105 0.095302865 0.53800005 10591118
-0.093079999 0.09512572 0.537 10460043
-0.091885716 0.094948567 0.53600001 10459785
-0.090864763 0.094948567 0.53600001 10525064
-0.08984381 0.094948567 0.53600001 10459783
-0.088822857 0.094948567 0.53600001 10394758
-0.087801903 0.094948567 0.53600001 10326150
-0.08678095 0.094948567 0.53600001 10194821
-0.085760005 0.094948567 0.53600001 10063748
-0.084580958 0.09477143 0.53500003 9932931
-0.083561912 0.09477143 0.53500003 10129795
-0.082542859 0.09477143 0.53500003 10326919
-0.081371427 0.094594292 0.53400004 10130571
-0.080354296 0.094594292 0.53400004 9999749
-0.079188578 0.094417147 0.53300005 9933696
-0.078173339 0.094417147 0.53300005 9802122
-0.077158101 0.094417147 0.53300005 10064789
-0.076142862 0.094417147 0.53300005 10261896
-0.075268574 0.094594292 0.53400004 9999228
-0.074251436 0.094594292 0.53400004 9735803
-0.073371425 0.09477143 0.53500003 9604219
-0.072487615 0.094948567 0.53600001 9538423
-0.071466669 0.094948567 0.53600001 9539700
-0.070445716 0.094948567 0.53600001 9606258
-0.069424763 0.094948567 0.53600001 9538928
-0.068531431 0.09512572 0.537 9537649
-0.067634292 0.095302865 0.53800005 9603443
-0.066733338 0.095480002 0.53900003 9669240
-0.06570667 0.095480002 0.53900003 9998974
-0.064680003 0.095480002 0.53900003 10328193
-0.063771427 0.095657147 0.54000002 10063749
-0.062742859 0.095657147 0.54000002 9867650
-0.061714288 0.095657147 0.54000002 9933695
-0.060798097 0.095834285 0.54100001 10000002
-0.059767619 0.095834285 0.54100001 10262661
-0.058845717 0.096011437 0.54200006 10525320
-0.057813339 0.096011437 0.54200006 10854028
-0.056990478 0.09636572 0.54400003 11182732
-0.056160003 0.096719995 0.546 10855564
-0.055220958 0.096897155 0.54700005 10594699
-0.054278098 0.097074293 0.54800004 10397066
-0.053331427 0.09725143 0.54900002 10264970
-0.052380953 0.097428575 0.55000001 9343882
-0.051520005 0.097782865 0.55200005 8422791
-0.050742857 0.098314285 0.55500001 8551556
-0.049685717 0.098314285 0.55500001 8615030
-0.048628572 0.098314285 0.55500001 8017257
-0.047657147 0.098491438 0.55600005 7419701
-0.046598099 0.098491438 0.55600005 6233345
-0.11522857 0.099371433 0.55500001 8012636
-0.11417143 0.099371433 0.55500001 8272479
-0.11291048 0.099192381 0.55400002 8534108
-0.11165334 0.099013336 0.55300003 8468057
-0.11040001 0.098834291 0.55200005 8402518
-0.10915048 0.098655231 0.551 8206163
-0.10790476 0.098476194 0.55000001 8081255
-0.10646858 0.098118104 0.54800004 8742779
-0.10465524 0.09740191 0.54400003 9403775
-0.10342857 0.097222865 0.54300004 9999492
-0.10220572 0.09704382 0.54200006 10591627
-0.10117334 0.09704382 0.54200006 10921875
-0.099956192 0.09686476 0.54100001 11248784
-0.098925717 0.09686476 0.54100001 11117198
-0.09771429 0.096685715 0.54000002 11051662
-0.09650667 0.09650667 0.53900003 10855311
-0.095302865 0.096327633 0.53800005 10723730
-0.094278105 0.096327633 0.53800005 10592149
-0.092906669 0.095969528 0.53600001 10460816
-0.091885716 0.095969528 0.53600001 10526090
-0.090864763 0.095969528 0.53600001 10657417
-0.08984381 0.095969528 0.53600001 10592393
-0.088822857 0.095969528 0.53600001 10525831
-0.087801903 0.095969528 0.53600001 10391430
-0.08678095 0.095969528 0.53600001 10260357
-0.085760005 0.095969528 0.53600001 10063747
-0.084580958 0.095790476 0.53500003 9867139
-0.083561912 0.095790476 0.53500003 10194818
-0.082542859 0.095790476 0.53500003 10523013
-0.081371427 0.095611431 0.53400004 10196105
-0.080354296 0.095611431 0.53400004 9933698
-0.07933715 0.095611431 0.53400004 9801596
-0.078320004 0.095611431 0.53400004 9670785
-0.077302866 0.095611431 0.53400004 9802374
-0.07628572 0.095611431 0.53400004 9933698
-0.075268574 0.095611431 0.53400004 9868415
-0.074251436 0.095611431 0.53400004 9867389
-0.073371425 0.095790476 0.53500003 9735547
-0.072487615 0.095969528 0.53600001 9604472
-0.071466669 0.095969528 0.53600001 9670261
-0.070445716 0.095969528 0.53600001 9736056
-0.069424763 0.095969528 0.53600001 9670779
-0.068531431 0.096148573 0.537 9670008
-0.067634292 0.096327633 0.53800005 9734773
-0.066733338 0.09650667 0.53900003 9800312
-0.06570667 0.09650667 0.53900003 10063227
-0.064680003 0.09650667 0.53900003 10390910
-0.063771427 0.096685715 0.54000002 10194561
-0.062859043 0.09686476 0.54100001 10063492
-0.061828569 0.09686476 0.54100001 10065543
-0.060798097 0.09686476 0.54100001 10131592
-0.0598781 0.09704382 0.54200006 10394505
-0.058845717 0.09704382 0.54200006 10722192
-0.057813339 0.09704382 0.54200006 11185046
-0.056990478 0.09740191 0.54400003 11708813
-0.056160003 0.097759999 0.546 11184004
-0.055220958 0.097939052 0.54700005 10724741
-0.054278098 0.098118104 0.54800004 10527622
-0.053331427 0.098297149 0.54900002 10390383
-0.052285716 0.098297149 0.54900002 8352601
-0.051893339 0.099550486 0.55600005 6310487
-0.050834291 0.099550486 0.55600005 6234453
-0.049864765 0.099729531 0.55700004 6233420
-0.048803814 0.099729531 0.55700004 6297923
-0.047742862 0.099729531 0.55700004 6427691
-0.046598099 0.099550486 0.55600005 6623251
-0.11649525 0.10060953 0.55600005 8533551
-0.11522857 0.10042857 0.55500001 8070201
-0.11417143 0.10042857 0.55500001 8136003
-0.11291048 0.10024762 0.55400002 8267340
-0.11165334 0.10006667 0.55300003 8205141
-0.11040001 0.099885717 0.55200005 8141642
-0.10915048 0.099704765 0.551 8075071
-0.10790476 0.099523805 0.55000001 7942986
-0.10666285 0.09934286 0.54900002 8076886
-0.10484762 0.098619051 0.54500002 8276320
-0.10342857 0.098257147 0.54300004 8607851
-0.10220572 0.098076202 0.54200006 8939393
-0.10117334 0.098076202 0.54200006 9273240
-0.10014096 0.098076202 0.54200006 9541780
-0.098925717 0.097895235 0.54100001 9343377
-0.09771429 0.09771429 0.54000002 9144979
-0.09650667 0.097533338 0.53900003 9934485
-0.095480002 0.097533338 0.53900003 10790553
-0.094278105 0.097352386 0.53800005 10527645
-0.093079999 0.097171426 0.537 10264980
-0.091885716 0.096990481 0.53600001 10133644
-0.090864763 0.096990481 0.53600001 9937035
-0.08984381 0.096990481 0.53600001 9870987
-0.088822857 0.096990481 0.53600001 9804937
-0.087801903 0.096990481 0.53600001 9672327
-0.08678095 0.096990481 0.53600001 9605253
-0.085760005 0.096990481 0.53600001 9735555
-0.084580958 0.096809521 0.53500003 9866114
-0.083561912 0.096809521 0.53500003 10196098
-0.082542859 0.096809521 0.53500003 10525060
-0.081523813 0.096809521 0.53500003 10195591
-0.080504768 0.096809521 0.53500003 9933439
-0.079485722 0.096809521 0.53500003 9735032
-0.078466676 0.096809521 0.53500003 9602936
-0.077302866 0.096628577 0.53400004 9735544
-0.07628572 0.096628577 0.53400004 9868157
-0.075409524 0.096809521 0.53500003 9934466
-0.074390478 0.096809521 0.53500003 9935231
-0.073371425 0.096809521 0.53500003 9866108
-0.072487615 0.096990481 0.53600001 9799545
-0.071466669 0.096990481 0.53600001 9932662
-0.070445716 0.096990481 0.53600001 9997950
-0.069424763 0.096990481 0.53600001 9932679
-0.068531431 0.097171426 0.537 9867391
-0.067634292 0.097352386 0.53800005 9997687
-0.066733338 0.097533338 0.53900003 10127992
-0.06570667 0.097533338 0.53900003 10325369
-0.064680003 0.097533338 0.53900003 10522747
-0.063771427 0.09771429 0.54000002 10391421
-0.062859043 0.097895235 0.54100001 10194054
-0.061828569 0.097895235 0.54100001 10131088
-0.060910482 0.098076202 0.54200006 10067343
-0.0598781 0.098076202 0.54200006 10001806
-0.058845717 0.098076202 0.54200006 9936279
-0.057920005 0.098257147 0.54300004 10266529
-0.057095237 0.098619051 0.54500002 10596750
-0.056262862 0.098980956 0.54700005 9407100
-0.055321909 0.099161915 0.54800004 8283007
-0.054278098 0.099161915 0.54800004 8215683
-0.053331427 0.09934286 0.54900002 8148309
-0.05247619 0.099704765 0.551 7351080
-0.051426668 0.099704765 0.551 6553895
-0.050377142 0.099704765 0.551 6685991
-0.049327616 0.099704765 0.551 6818082
-0.048278097 0.099704765 0.551 6887966
-0.047742862 0.10079049 0.55700004 6953505
-0.11925334 0.10221715 0.55900002 9726826
-0.11797715 0.10203429 0.55800003 7941966
-0.11670477 0.10185143 0.55700004 8066097
-0.1154362 0.10166858 0.55600005 8201015
-0.11417143 0.10148571 0.55500001 8071229
-0.11291048 0.10130286 0.55400002 8004930
-0.11165334 0.10112001 0.55300003 7942216
-0.1106 0.10112001 0.55300003 7939904
-0.10915048 0.10075428 0.551 7872313
-0.10790476 0.10057143 0.55000001 7871037
-0.10666285 0.10038857 0.54900002 7476544
-0.10542477 0.10020572 0.54800004 7148870
-0.10361905 0.099474289 0.54400003 7214411
-0.10239429 0.099291436 0.54300004 7352920
-0.10117334 0.099108577 0.54200006 7622500
-0.10014096 0.099108577 0.54200006 7884128
-0.098925717 0.098925717 0.54100001 7556187
-0.09771429 0.098742865 0.54000002 7235951
-0.096685715 0.098742865 0.54000002 9013124
-0.095480002 0.098560005 0.53900003 10852494
-0.094278105 0.098377146 0.53800005 10463896
-0.093079999 0.098194286 0.537 10130564
-0.092057146 0.098194286 0.537 9666161
-0.090864763 0.098011427 0.53600001 9275254
-0.08984381 0.098011427 0.53600001 9212284
-0.088822857 0.098011427 0.53600001 9141877
-0.087801903 0.098011427 0.53600001 9006190
-0.08678095 0.098011427 0.53600001 8943478
-0.085760005 0.098011427 0.53600001 9405311
-0.084739052 0.098011427 0.53600001 9930620
-0.083718091 0.098011427 0.53600001 10197626
-0.082697146 0.098011427 0.53600001 10524028
-0.081523813 0.097828574 0.53500003 10260862
-0.080504768 0.097828574 0.53500003 9996924
-0.079485722 0.097828574 0.53500003 9733243
-0.078466676 0.097828574 0.53500003 9536634
-0.077447623 0.097828574 0.53500003 9667962
-0.07628572 0.097645722 0.53400004 9865341
-0.075409524 0.097828574 0.53500003 9931903
-0.074390478 0.097828574 0.53500003 10062718
-0.073508576 0.098011427 0.53600001 10062461
-0.072487615 0.098011427 0.53600001 10062202
-0.071466669 0.098011427 0.53600001 10195063
-0.070445716 0.098011427 0.53600001 10325882
-0.069424763 0.098011427 0.53600001 10194813
-0.068531431 0.098194286 0.537 10063992
-0.067634292 0.098377146 0.53800005 10260851
-0.066609524 0.098377146 0.53800005 10456439
-0.06570667 0.098560005 0.53900003 10591867
-0.064680003 0.098560005 0.53900003 10718843
-0.063889526 0.098925717 0.54100001 10522746
-0.062975243 0.099108577 0.54200006 10392441
-0.061942864 0.099108577 0.54200006 10196856
-0.060910482 0.099108577 0.54200006 9997949
-0.0598781 0.099108577 0.54200006 9602689
-0.058954287 0.099291436 0.54300004 9209990
-0.05824 0.09984 0.546 9341834
-0.0572 0.09984 0.546 9529707
-0.056262862 0.10002287 0.54700005 7686220
-0.055321909 0.10020572 0.54800004 5841999
-0.054278098 0.10020572 0.54800004 5833042
-0.053331427 0.10038857 0.54900002 5898812
-0.052666668 0.10112001 0.55300003 6358054
-0.051613338 0.10112001 0.55300003 6818599
-0.050560005 0.10112001 0.55300003 7082537
-0.049327616 0.10075428 0.551 7411239
-0.048278097 0.10075428 0.551 7478053
-0.12053333 0.10346667 0.56 9729909
-0.11925334 0.1032819 0.55900002 8867896
-0.11818857 0.1032819 0.55900002 8066358
-0.11670477 0.10291239 0.55700004 8001844
-0.1154362 0.10272763 0.55600005 8004149
-0.11437715 0.10272763 0.55600005 7873335
-0.11291048 0.1023581 0.55400002 7742521
-0.11185524 0.1023581 0.55400002 7675707
-0.1106 0.10217334 0.55300003 7674423
-0.10915048 0.10180381 0.551 7608372
-0.10790476 0.10161905 0.55000001 7608111
-0.10666285 0.10143429 0.54900002 7345707
-0.10542477 0.10124952 0.54800004 7149099
-0.10361905 0.10051048 0.54400003 7213868
-0.10239429 0.10032573 0.54300004 7344430
-0.10117334 0.10014096 0.54200006 7543857
-0.10014096 0.10014096 0.54200006 7677739
-0.099108577 0.10014096 0.54200006 7412262
-0.097895235 0.099956192 0.54100001 7212364
-0.096685715 0.099771433 0.54000002 7946099
-0.095480002 0.099586673 0.53900003 8745347
-0.094278105 0.099401914 0.53800005 8548499
-0.093253337 0.099401914 0.53800005 8351604
-0.092057146 0.099217147 0.537 7883862
-0.090864763 0.09903238 0.53600001 7481698
-0.08984381 0.09903238 0.53600001 7613038
-0.088822857 0.09903238 0.53600001 7744609
-0.087801903 0.09903238 0.53600001 7678549
-0.08678095 0.09903238 0.53600001 7612776
-0.085760005 0.09903238 0.53600001 7949947
-0.084739052 0.09903238 0.53600001 8352887
-0.083718091 0.09903238 0.53600001 8553075
-0.082697146 0.09903238 0.53600001 8818804
-0.081523813 0.098847628 0.53500003 8684149
-0.080504768 0.098847628 0.53500003 8483961
-0.079485722 0.098847628 0.53500003 8287870
-0.078466676 0.098847628 0.53500003 8157309
-0.077447623 0.098847628 0.53500003 8092029
-0.076428577 0.098847628 0.53500003 8027005
-0.075409524 0.098847628 0.53500003 8092029
-0.074529529 0.09903238 0.53600001 8091773
-0.073508576 0.09903238 0.53600001 8159614
-0.072487615 0.09903238 0.53600001 8293243
-0.071466669 0.09903238 0.53600001 8358009
-0.070445716 0.09903238 0.53600001 8423030
-0.069424763 0.09903238 0.53600001 8289139
-0.068531431 0.099217147 0.537 8155249
-0.067634292 0.099401914 0.53800005 8290415
-0.066609524 0.099401914 0.53800005 8425846
-0.06570667 0.099586673 0.53900003 8556414
-0.064680003 0.099586673 0.53900003 8686971
-0.063889526 0.099956192 0.54100001 8553592
-0.062975243 0.10014096 0.54200006 8420460
-0.061942864 0.10014096 0.54200006 8218977
-0.060910482 0.10014096 0.54200006 8017515
-0.059988577 0.10032573 0.54300004 7683701
-0.059062857 0.10051048 0.54400003 7415668
-0.058026668 0.10051048 0.54400003 7742324
-0.057409525 0.10124952 0.54800004 8068936
-0.056365721 0.10124952 0.54800004 7278621
-0.055321909 0.10124952 0.54800004 6553887
-0.05447619 0.10161905 0.55000001 6620706
-0.053428572 0.10161905 0.55000001 6621987
-0.052380953 0.10161905 0.55000001 6951717
-0.051333334 0.10161905 0.55000001 7281448
-0.051108573 0.1032819 0.55900002 7477803
-0.05004381 0.1032819 0.55900002 7739947
-0.049154289 0.10365143 0.56100005 7674412
-0.048085719 0.10365143 0.56100005 7608879
-0.047017146 0.10365143 0.56100005 7544882
-0.12181716 0.10472 0.56100005 9795220
-0.12053333 0.10453334 0.56 7951719
-0.11925334 0.10434667 0.55900002 8074555
-0.11818857 0.10434667 0.55900002 8202808
-0.11691429 0.10416 0.55800003 8003381
-0.11564382 0.10397334 0.55700004 7871793
-0.11437715 0.10378668 0.55600005 7674925
-0.11311429 0.1036 0.55500001 7477808
-0.11185524 0.10341334 0.55400002 7411762
-0.1106 0.10322668 0.55300003 7411761
-0.10915048 0.10285334 0.551 7412016
-0.10790476 0.10266667 0.55000001 7411245
-0.10646858 0.10229333 0.54800004 7282219
-0.10542477 0.10229333 0.54800004 7149099
-0.10380952 0.10173333 0.54500002 7281708
-0.10239429 0.10136001 0.54300004 7410989
-0.10136001 0.10136001 0.54300004 7475758
-0.10014096 0.10117334 0.54200006 7541037
-0.099108577 0.10117334 0.54200006 7344171
-0.097895235 0.10098667 0.54100001 7212603
-0.096685715 0.1008 0.54000002 6949195
-0.095657147 0.1008 0.54000002 6691920
-0.094453342 0.10061333 0.53900003 6631254
-0.093253337 0.10042667 0.53800005 6559813
-0.092228584 0.10042667 0.53800005 6095157
-0.091034286 0.10024 0.537 5701952
-0.090011425 0.10024 0.537 6029899
-0.088822857 0.10005333 0.53600001 6357829
-0.087965712 0.10024 0.537 6292543
-0.08678095 0.10005333 0.53600001 6299972
-0.085760005 0.10005333 0.53600001 6494792
-0.084739052 0.10005333 0.53600001 6762313
-0.083718091 0.10005333 0.53600001 6964298
-0.082697146 0.10005333 0.53600001 7162700
-0.081676193 0.10005333 0.53600001 7098958
-0.08065524 0.10005333 0.53600001 7031629
-0.079634286 0.10005333 0.53600001 6898764
-0.078613333 0.10005333 0.53600001 6766923
-0.07759238 0.10005333 0.53600001 6504011
-0.076571427 0.10005333 0.53600001 6236488
-0.075550482 0.10005333 0.53600001 6165829
-0.074529529 0.10005333 0.53600001 6172492
-0.073508576 0.10005333 0.53600001 6310226
-0.072487615 0.10005333 0.53600001 6508367
-0.071466669 0.10005333 0.53600001 6509899
-0.070577145 0.10024 0.537 6570056
-0.069554284 0.10024 0.537 6368070
-0.068531431 0.10024 0.537 6238789
-0.067759998 0.10061333 0.53900003 6306373
-0.066733338 0.10061333 0.53900003 6440009
-0.06570667 0.10061333 0.53900003 6508109
-0.064800002 0.1008 0.54000002 6635593
-0.063771427 0.1008 0.54000002 6500934
-0.062975243 0.10117334 0.54200006 6431039
-0.061942864 0.10117334 0.54200006 6230073
-0.060910482 0.10117334 0.54200006 6097213
-0.06009905 0.10154667 0.54400003 5833537
-0.059171431 0.10173333 0.54500002 5636932
-0.058346674 0.10210668 0.54700005 6095688
-0.057409525 0.10229333 0.54800004 6620725
-0.056365721 0.10229333 0.54800004 6949155
-0.055422861 0.10248 0.54900002 7344164
-0.05447619 0.10266667 0.55000001 7346214
-0.053428572 0.10266667 0.55000001 7412009
-0.052761905 0.10341334 0.55400002 7543597
-0.051706668 0.10341334 0.55400002 7739692
-0.050925717 0.10397334 0.55700004 7870507
-0.05004381 0.10434667 0.55900002 8067369
-0.049154289 0.10472 0.56100005 7871016
-0.048085719 0.10472 0.56100005 7674410
-0.047100954 0.10490667 0.56200004 7544875
-0.04603048 0.10490667 0.56200004 7413790
-0.044960003 0.10490667 0.56200004 7217426
-0.12288573 0.10578858 0.56100005 10589849
-0.1216 0.1056 0.56 9194613
-0.12053333 0.1056 0.56 7802457
-0.11925334 0.10541143 0.55900002 7876670
-0.11818857 0.10541143 0.55900002 8007738
-0.11691429 0.10522287 0.55800003 7806006
-0.11564382 0.10503429 0.55700004 7608877
-0.11437715 0.10484572 0.55600005 7478052
-0.11311429 0.10465714 0.55500001 7411239
-0.11185524 0.10446857 0.55400002 7345450
-0.1106 0.10428 0.55300003 7344939
-0.10915048 0.10390285 0.551 7345196
-0.10790476 0.10371429 0.55000001 7345452
-0.10666285 0.10352571 0.54900002 7345708
-0.10542477 0.10333715 0.54800004 7280428
-0.10380952 0.10277143 0.54500002 7346220
-0.10239429 0.10239429 0.54300004 7477548
-0.10136001 0.10239429 0.54300004 7476012
-0.10014096 0.10220572 0.54200006 7476526
-0.099108577 0.10220572 0.54200006 7344689
-0.098076202 0.10220572 0.54200006 7278378
-0.09686476 0.10201714 0.54100001 7146275
-0.095657147 0.10182858 0.54000002 7079966
-0.094453342 0.10164001 0.53900003 7013657
-0.093253337 0.10145143 0.53800005 6947607
-0.092228584 0.10145143 0.53800005 6687253
-0.091034286 0.10126285 0.537 6426910
-0.090011425 0.10126285 0.537 6623528
-0.088988572 0.10126285 0.537 6885673
-0.087965712 0.10126285 0.537 6755626
-0.08678095 0.10107429 0.53600001 6691360
-0.085760005 0.10107429 0.53600001 6757398
-0.084739052 0.10107429 0.53600001 6819356
-0.083718091 0.10107429 0.53600001 6884386
-0.082697146 0.10107429 0.53600001 6949668
-0.081676193 0.10107429 0.53600001 6952487
-0.08065524 0.10107429 0.53600001 6955296
-0.079634286 0.10107429 0.53600001 6755098
-0.078613333 0.10107429 0.53600001 6620698
-0.07759238 0.10107429 0.53600001 6358042
-0.076571427 0.10107429 0.53600001 6160916
-0.075691424 0.10126285 0.537 6161166
-0.074668571 0.10126285 0.537 6227226
-0.073508576 0.10107429 0.53600001 6230823
-0.072487615 0.10107429 0.53600001 6234402
-0.071599998 0.10126285 0.537 6362142
-0.070840001 0.10164001 0.53900003 6490139
-0.069813333 0.10164001 0.53900003 6292505
-0.068786673 0.10164001 0.53900003 6095130
-0.067885719 0.10182858 0.54000002 6292508
-0.066857144 0.10182858 0.54000002 6555676
-0.065828577 0.10182858 0.54000002 6687004
-0.064800002 0.10182858 0.54000002 6752792
-0.064007625 0.10220572 0.54200006 6621205
-0.062975243 0.10220572 0.54200006 6489619
-0.062057145 0.10239429 0.54300004 6555665
-0.061247624 0.10277143 0.54500002 6621711
-0.060319997 0.10296 0.546 6556942
-0.059497148 0.10333715 0.54800004 6557717
-0.058453336 0.10333715 0.54800004 6885404
-0.057514288 0.10352571 0.54900002 7213346
-0.056571428 0.10371429 0.55000001 7410729
-0.055523813 0.10371429 0.55000001 7673642
-0.054575238 0.10390285 0.551 7608107
-0.053720001 0.10428 0.55300003 7608112
-0.052761905 0.10446857 0.55400002 7608117
-0.051893339 0.10484572 0.55600005 7673648
-0.050925717 0.10503429 0.55700004 7739179
-0.05004381 0.10541143 0.55900002 7804712
-0.049066667 0.1056 0.56 7673893
-0.048085719 0.10578858 0.56100005 7543333
-0.047184765 0.10616572 0.56300002 7478565
-0.046112385 0.10616572 0.56300002 7414043
-0.045040004 0.10616572 0.56300002 7348497
-0.04396762 0.10616572 0.56300002 7284245
-0.12266667 0.10666667 0.56 9593979
-0.1216 0.10666667 0.56 8659529
-0.12031809 0.1064762 0.55900002 7743297
-0.11925334 0.1064762 0.55900002 7744568
-0.11797715 0.10628572 0.55800003 7807539
-0.11691429 0.10628572 0.55800003 7608623
-0.11564382 0.10609525 0.55700004 7412264
-0.11437715 0.10590477 0.55600005 7346977
-0.11311429 0.10571428 0.55500001 7345188
-0.11185524 0.10552381 0.55400002 7345448
-0.1106 0.10533334 0.55300003 7345191
-0.10915048 0.10495238 0.551 7345447
-0.10790476 0.10476191 0.55000001 7345449
-0.10646858 0.10438096 0.54800004 7409963
-0.10542477 0.10438096 0.54800004 7475497
-0.10399999 0.10399999 0.546 7475751
-0.10258286 0.10361905 0.54400003 7541544
-0.10136001 0.10342857 0.54300004 7476522
-0.10032573 0.10342857 0.54300004 7410988
-0.099108577 0.10323811 0.54200006 7410991
-0.098076202 0.10323811 0.54200006 7411499
-0.09686476 0.10304762 0.54100001 7412264
-0.095834285 0.10304762 0.54100001 7477542
-0.094453342 0.10266667 0.53900003 7411748
-0.093253337 0.10247619 0.53800005 7412002
-0.092228584 0.10247619 0.53800005 7281440
-0.091203816 0.10247619 0.53800005 7216422
-0.090179056 0.10247619 0.53800005 7282476
-0.089154288 0.10247619 0.53800005 7413548
-0.088129535 0.10247619 0.53800005 7217195
-0.087104768 0.10247619 0.53800005 7085350
-0.085920006 0.10228571 0.537 7020065
-0.084897138 0.10228571 0.537 6953759
-0.083874285 0.10228571 0.537 6887454
-0.082697146 0.10209524 0.53600001 6821411
-0.081828572 0.10228571 0.537 6886439
-0.080805711 0.10228571 0.537 6951963
-0.079782858 0.10228571 0.537 6689806
-0.078759998 0.10228571 0.537 6491413
-0.077737145 0.10228571 0.537 6293276
-0.076714285 0.10228571 0.537 6097429
-0.075691424 0.10228571 0.537 6229518
-0.074807622 0.10247619 0.53800005 6359830
-0.073782861 0.10247619 0.53800005 6162462
-0.072758101 0.10247619 0.53800005 6031390
-0.071733341 0.10247619 0.53800005 6228255
-0.070840001 0.10266667 0.53900003 6425115
-0.069942862 0.10285715 0.54000002 6163479
-0.068914287 0.10285715 0.54000002 5966876
-0.067885719 0.10285715 0.54000002 6360353
-0.067104764 0.10323811 0.54200006 6753565
-0.065950476 0.10304762 0.54100001 6819354
-0.065040007 0.10323811 0.54200006 6951451
-0.064007625 0.10323811 0.54200006 6756125
-0.063091427 0.10342857 0.54300004 6559772
-0.062171433 0.10361905 0.54400003 6887964
-0.061360002 0.10399999 0.546 7215131
-0.060430482 0.10419048 0.54700005 7345947
-0.059497148 0.10438096 0.54800004 7476511
-0.058453336 0.10438096 0.54800004 7672866
-0.057514288 0.10457143 0.54900002 7869222
-0.056571428 0.10476191 0.55000001 7936555
-0.055523813 0.10476191 0.55000001 8000809
-0.05467429 0.10514286 0.55200005 7869735
-0.053720001 0.10533334 0.55300003 7804459
-0.052761905 0.10552381 0.55400002 7674159
-0.051893339 0.10590477 0.55600005 7608364
-0.050925717 0.10609525 0.55700004 7608361
-0.05004381 0.1064762 0.55900002 7607847
-0.049066667 0.10666667 0.56 7542310
-0.048171431 0.10704762 0.56200004 7477284
-0.047184765 0.1072381 0.56300002 7412258
-0.046112385 0.1072381 0.56300002 7413020
-0.045040004 0.1072381 0.56300002 7414037
-0.04396762 0.1072381 0.56300002 7478551
-0.12288573 0.10792572 0.56100005 8467294
-0.1216 0.10773333 0.56 8070686
-0.12053333 0.10773333 0.56 7739688
-0.11925334 0.10754095 0.55900002 7608883
-0.11797715 0.10734858 0.55800003 7478317
-0.11670477 0.10715619 0.55700004 7346472
-0.1154362 0.10696382 0.55600005 7215651
-0.11437715 0.10696382 0.55600005 7149598
-0.11311429 0.10677142 0.55500001 7148322
-0.11185524 0.10657905 0.55400002 7213862
-0.11040001 0.10619429 0.55200005 7344932
-0.10915048 0.10600191 0.551 7345187
-0.10790476 0.10580953 0.55000001 7410983
-0.10646858 0.10542477 0.54800004 7409963
-0.10542477 0.10542477 0.54800004 7409958
-0.10399999 0.10504 0.546 7475490
-0.10258286 0.10465524 0.54400003 7541029
-0.10154667 0.10465524 0.54400003 7477033
-0.10032573 0.10446287 0.54300004 7412011
-0.099108577 0.10427048 0.54200006 7345453
-0.098076202 0.10427048 0.54200006 7345709
-0.09704382 0.10427048 0.54200006 7346733
-0.096011437 0.10427048 0.54200006 7411758
-0.09480381 0.1040781 0.54100001 7346735
-0.093600005 0.10388572 0.54000002 7347245
-0.09257143 0.10388572 0.54000002 7282219
-0.091542862 0.10388572 0.54000002 7217198
-0.090346672 0.10369334 0.53900003 7282481
-0.089320004 0.10369334 0.53900003 7348783
-0.088129535 0.10350096 0.53800005 7217197
-0.087104768 0.10350096 0.53800005 7085100
-0.085920006 0.10330857 0.537 7019820
-0.084897138 0.10330857 0.537 7019555
-0.083874285 0.10330857 0.537 6887963
-0.082697146 0.10311619 0.53600001 6822433
-0.081676193 0.10311619 0.53600001 6951720
-0.080805711 0.10330857 0.537 7083541
-0.079782858 0.10330857 0.537 7680259
-0.078759998 0.10330857 0.537 8277264
-0.077737145 0.10330857 0.537 7879454
-0.076714285 0.10330857 0.537 7481878
-0.075691424 0.10330857 0.537 6888718
-0.074807622 0.10350096 0.53800005 6361361
-0.073782861 0.10350096 0.53800005 6361109
-0.072758101 0.10350096 0.53800005 6360859
-0.071733341 0.10350096 0.53800005 6557217
-0.070840001 0.10369334 0.53900003 6753819
-0.069942862 0.10388572 0.54000002 6623253
-0.069041908 0.1040781 0.54100001 6558237
-0.068011433 0.1040781 0.54100001 6820390
-0.067104764 0.10427048 0.54200006 7082527
-0.066072389 0.10427048 0.54200006 7214104
-0.065040007 0.10427048 0.54200006 7346719
-0.064007625 0.10427048 0.54200006 7149094
-0.063091427 0.10446287 0.54300004 6952998
-0.062285714 0.10484762 0.54500002 7149607
-0.061472386 0.10523239 0.54700005 7346216
-0.060430482 0.10523239 0.54700005 7608105
-0.059497148 0.10542477 0.54800004 7869737
-0.058453336 0.10542477 0.54800004 7935273
-0.057514288 0.10561714 0.54900002 7935275
-0.056571428 0.10580953 0.55000001 8001069
-0.055523813 0.10580953 0.55000001 8131368
-0.054575238 0.10600191 0.551 7869732
-0.05362286 0.10619429 0.55200005 7673126
-0.052666668 0.10638668 0.55300003 7541801
-0.051799998 0.10677142 0.55500001 7476264
-0.050834291 0.10696382 0.55600005 7410727
-0.049864765 0.10715619 0.55700004 7410983
-0.048979048 0.10754095 0.55900002 7411239
-0.048085719 0.10792572 0.56100005 7411491
-0.047100954 0.1081181 0.56200004 7345952
-0.046112385 0.10831048 0.56300002 7346205
-0.045040004 0.10831048 0.56300002 7346458
-0.04396762 0.10831048 0.56300002 7346713
-0.042895239 0.10831048 0.56300002 6954009
-0.12395429 0.10899429 0.56100005 9659258
-0.12266667 0.10879999 0.56 7412301
-0.1216 0.10879999 0.56 7537696
-0.12053333 0.10879999 0.56 7738920
-0.11925334 0.10860571 0.55900002 7477807
-0.11797715 0.10841144 0.55800003 7215657
-0.11670477 0.10821715 0.55700004 7084580
-0.1154362 0.10802287 0.55600005 7018275
-0.11437715 0.10802287 0.55600005 7017762
-0.11291048 0.10763429 0.55400002 7017509
-0.11165334 0.10744 0.55300003 7149865
-0.1102 0.10705142 0.551 7344678
-0.10895238 0.10685714 0.55000001 7410212
-0.10770857 0.10666285 0.54900002 7475497
-0.10646858 0.10646858 0.54800004 7409967
-0.10523239 0.1062743 0.54700005 7344170
-0.10399999 0.10608 0.546 7476517
-0.10277143 0.10588571 0.54500002 7606822
-0.10154667 0.10569143 0.54400003 7477543
-0.10032573 0.10549715 0.54300004 7411496
-0.099108577 0.10530286 0.54200006 7345706
-0.098076202 0.10530286 0.54200006 7280426
-0.09704382 0.10530286 0.54200006 7281194
-0.096011437 0.10530286 0.54200006 7346731
-0.09480381 0.10510857 0.54100001 7281708
-0.093600005 0.10491429 0.54000002 7281452
-0.09257143 0.10491429 0.54000002 7283244
-0.091373339 0.10472 0.53900003 7282991
-0.090346672 0.10472 0.53900003 7282738
-0.089320004 0.10472 0.53900003 7282740
-0.088129535 0.10452572 0.53800005 7217463
-0.087104768 0.10452572 0.53800005 7150641
-0.086080007 0.10452572 0.53800005 7085612
-0.085055239 0.10452572 0.53800005 7084839
-0.083874285 0.10433143 0.537 6953507
-0.082851432 0.10433143 0.537 6822690
-0.081828572 0.10433143 0.537 7016994
-0.080805711 0.10433143 0.537 7285031
-0.079782858 0.10433143 0.537 8678956
-0.078759998 0.10433143 0.537 10120995
-0.077737145 0.10433143 0.537 9465883
-0.076714285 0.10433143 0.537 8866077
-0.075691424 0.10433143 0.537 7614495
-0.074807622 0.10452572 0.53800005 6427165
-0.073782861 0.10452572 0.53800005 6558491
-0.072893336 0.10472 0.53900003 6755102
-0.071866669 0.10472 0.53900003 6886177
-0.070971429 0.10491429 0.54000002 7082781
-0.069942862 0.10491429 0.54000002 7148569
-0.069169529 0.10530286 0.54200006 7214112
-0.068011433 0.10510857 0.54100001 7279911
-0.067104764 0.10530286 0.54200006 7410980
-0.066072389 0.10530286 0.54200006 7607841
-0.065040007 0.10530286 0.54200006 7804450
-0.064007625 0.10530286 0.54200006 7607843
-0.063091427 0.10549715 0.54300004 7411493
-0.062285714 0.10588571 0.54500002 7477543
-0.061360002 0.10608 0.546 7542825
-0.060319997 0.10608 0.546 7936043
-0.059388574 0.1062743 0.54700005 8328487
-0.058453336 0.10646858 0.54800004 8196388
-0.057409525 0.10646858 0.54800004 8066086
-0.056468572 0.10666285 0.54900002 8132649
-0.055523813 0.10685714 0.55000001 8263463
-0.05467429 0.10724572 0.55200005 7935781
-0.053720001 0.10744 0.55300003 7607589
-0.052761905 0.10763429 0.55400002 7476005
-0.051799998 0.10782857 0.55500001 7344934
-0.050834291 0.10802287 0.55600005 7279399
-0.049864765 0.10821715 0.55700004 7213605
-0.048891429 0.10841144 0.55800003 7278884
-0.047914285 0.10860571 0.55900002 7344930
-0.047017146 0.10899429 0.56100005 7280161
-0.04603048 0.10918858 0.56200004 7280160
-0.045040004 0.10938286 0.56300002 7281183
-0.04396762 0.10938286 0.56300002 7281700
-0.042895239 0.10938286 0.56300002 7216680
-0.12395429 0.11006287 0.56100005 9194326
-0.12288573 0.11006287 0.56100005 7405884
-0.1216 0.10986666 0.56 7473699
-0.12053333 0.10986666 0.56 7607335
-0.11925334 0.10967048 0.55900002 7410220
-0.11797715 0.10947429 0.55800003 7147814
-0.11691429 0.10947429 0.55800003 7082272
-0.11564382 0.10927811 0.55700004 7016739
-0.11437715 0.10908192 0.55600005 7017255
-0.11311429 0.10888571 0.55500001 7017769
-0.11145144 0.10829715 0.55200005 7149612
-0.1102 0.10810095 0.551 7344425
-0.10875428 0.10770857 0.54900002 7475494
-0.10751238 0.10751238 0.54800004 7606572
-0.10646858 0.10751238 0.54800004 7344435
-0.10523239 0.1073162 0.54700005 7081774
-0.10399999 0.10712 0.546 7213353
-0.10277143 0.10692381 0.54500002 7410471
-0.10136001 0.10653143 0.54300004 7344933
-0.10032573 0.10653143 0.54300004 7279398
-0.099108577 0.10633525 0.54200006 7214631
-0.098076202 0.10633525 0.54200006 7215399
-0.09686476 0.10613905 0.54100001 7215399
-0.095834285 0.10613905 0.54100001 7215656
-0.094628572 0.10594286 0.54000002 7150121
-0.093426675 0.10574667 0.53900003 7150379
-0.092399999 0.10574667 0.53900003 7150637
-0.091373339 0.10574667 0.53900003 7216432
-0.090346672 0.10574667 0.53900003 7216691
-0.089320004 0.10574667 0.53900003 7217210
-0.088293336 0.10574667 0.53900003 7282241
-0.087266669 0.10574667 0.53900003 7347511
-0.086080007 0.10555048 0.53800005 7216173
-0.085055239 0.10555048 0.53800005 7084844
-0.083874285 0.10535429 0.537 7019307
-0.082851432 0.10535429 0.537 6954276
-0.081828572 0.10535429 0.537 7018013
-0.080805711 0.10535429 0.537 7093561
-0.079931438 0.10555048 0.53800005 8482390
-0.078759998 0.10535429 0.537 9798711
-0.077737145 0.10535429 0.537 9203224
-0.076714285 0.10535429 0.537 8546340
-0.075691424 0.10535429 0.537 7416625
-0.074807622 0.10555048 0.53800005 6231081
-0.073782861 0.10555048 0.53800005 6493729
-0.072893336 0.10574667 0.53900003 6756641
-0.071866669 0.10574667 0.53900003 6952482
-0.070971429 0.10594286 0.54000002 7083296
