# .PCD v0.7 - Point Cloud Data file format
VERSION 0.7
FIELDS x y z rgba
SIZE 4 4 4 4
TYPE F F F U
COUNT 1 1 1 1
WIDTH 1124
HEIGHT 1
VIEWPOINT 0 0 0 1 0 0 0
POINTS 1124
DATA ascii
-0.018685427 0.10391814 0.3902083 7871498
-0.017867949 0.10401595 0.39058328 7871498
-0.017048905 0.10411388 0.39095822 7805705
-0.01622312 0.10417874 0.3912082 7871244
-0.015396293 0.10424373 0.39145818 7871244
-0.014563778 0.1042756 0.39158317 7805453
-0.013730758 0.10430762 0.39170817 7871246
-0.012893111 0.10430651 0.39170817 7805453
-0.012051636 0.10427228 0.39158317 7740430
-0.011214291 0.1042715 0.39158317 7740430
-0.010376961 0.10427087 0.39158317 7740428
-0.0095396377 0.10427039 0.39158317 7806221
-0.0087050982 0.10430336 0.39170817 7806221
-0.0078675169 0.1043032 0.39170817 8003600
-0.0070299343 0.10430318 0.39170817 8003854
-0.0061923466 0.10430337 0.39170817 8135440
-0.0053547504 0.10430367 0.39170817 8003854
-0.0045185839 0.10433743 0.39183313 8069647
-0.0036830422 0.10440461 0.39208311 8003854
-0.0028473192 0.10450525 0.39245808 7872268
-0.0020099704 0.10460603 0.39283302 7741452
-0.0011709927 0.10470701 0.393208 7675659
-0.00033027722 0.10477482 0.39345798 7609612
0.0005115401 0.1048428 0.39370793 7609612
0.0013536033 0.1048444 0.39370793 7675405
0.0021957061 0.10484613 0.39370793 7675405
0.0030368869 0.10481472 0.39358294 7609612
0.0038763492 0.10475022 0.39333299 7609612
0.0047147903 0.10468587 0.39308301 7609612
0.0055539827 0.10465495 0.39295802 7609612
0.006392695 0.10462417 0.39283302 7412235
0.0072332351 0.10462683 0.39283302 7478541
0.0080789784 0.10469627 0.39308301 7412748
0.0089286938 0.10479914 0.39345798 7281932
0.0097893961 0.10500205 0.39420789 7216141
0.010650013 0.10517184 0.39483282 7347727
0.01152066 0.10540838 0.39570773 7281934
0.012383413 0.1055452 0.39620766 7281934
0.013240047 0.10561562 0.39645764 7216141
0.014084512 0.10558632 0.39633265 7281934
0.014928538 0.10555715 0.39620766 7281934
0.015782075 0.10559475 0.39633265 7216141
0.01666772 0.10583232 0.39720756 7150605
0.017540673 0.10597015 0.39770752 7019019
0.018439002 0.1062414 0.39870742 7019019
0.01929334 0.10624637 0.39870742 7150605
0.020135159 0.10618489 0.39845744 7150605
0.020943107 0.10595702 0.39758253 7150351
0.021514466 0.10459671 0.39245808 7413523
0.022227729 0.1040026 0.3902083 7744289
0.024161594 0.10514684 0.39445785 7942438
0.025110709 0.10558604 0.3960827 8074024
0.026066927 0.10602543 0.39770752 8074024
0.026996417 0.10633175 0.39883238 8074024
-0.072791882 0.10119177 0.37495995 7944237
-0.072074458 0.10131346 0.37545988 7878444
-0.071307719 0.10136783 0.37570986 7944237
-0.070610553 0.10152354 0.37633479 7944237
-0.069841437 0.10157825 0.37658477 7878444
-0.069048606 0.10159942 0.37670976 7878444
-0.068232879 0.10158703 0.37670976 7944237
-0.067439795 0.10160853 0.37683475 7944237
-0.066624336 0.10159649 0.37683475 8075053
-0.065830998 0.10161835 0.37695974 7944237
-0.065015823 0.10160667 0.37695974 7944237
-0.064200908 0.10159519 0.37695974 8010030
-0.063407257 0.10161754 0.3770847 8075053
-0.062634088 0.10167377 0.37733468 8075053
-0.061839599 0.10169645 0.37745968 8075051
-0.061044797 0.1017193 0.37758467 8075051
-0.060189903 0.10164135 0.37733468 8009258
-0.05927733 0.10146257 0.37670976 8140074
-0.058464654 0.10145231 0.37670976 8140076
-0.05765222 0.10144222 0.37670976 8140076
-0.056953162 0.10163423 0.37745968 8205869
-0.056344029 0.10199459 0.37883452 8205869
-0.055765837 0.10242239 0.38045937 8271660
-0.055162799 0.10281661 0.3819592 8205867
-0.054642428 0.10337915 0.38408396 8140074
-0.053937975 0.10360537 0.38495886 8140074
-0.053178232 0.10373082 0.38545883 8140074
-0.048987985 0.10188042 0.37870955 8008488
-0.048125979 0.10177146 0.37833458 7745316
-0.047265749 0.10166265 0.37795961 7876129
-0.046468765 0.10168854 0.3780846 7612957
-0.045686495 0.10174818 0.37833458 7348502
-0.044962618 0.10194241 0.3790845 7413268
-0.044192012 0.10203596 0.37945947 7347475
-0.04341995 0.10212965 0.37983441 7347475
-0.042618401 0.1021563 0.3799594 7347473
-0.041830212 0.1022167 0.38020939 7347473
-0.041095033 0.10241167 0.3809593 7346703
-0.040436059 0.10280834 0.38245913 7412496
-0.039719004 0.10307077 0.38345903 7411983
-0.038871009 0.10299736 0.38320905 7411983
-0.03808628 0.1030921 0.38358402 7280397
-0.037239362 0.10301907 0.38333404 7411983
-0.036536116 0.10334921 0.38458392 7478030
-0.035816036 0.10364589 0.38570878 7478030
-0.034989212 0.1036405 0.38570878 7478030
-0.034151435 0.10360167 0.38558382 7478030
-0.033271085 0.10342868 0.38495886 7478030
-0.032393534 0.10325586 0.38433394 7608846
-0.031518757 0.10308322 0.38370901 7739662
-0.03067676 0.10301148 0.38345903 7673869
-0.029835928 0.10293992 0.38320905 7739405
-0.029034112 0.10300282 0.38345903 7739405
-0.028231315 0.10306589 0.38370901 7739405
-0.027454318 0.10322979 0.38433394 7739405
-0.026674725 0.10339385 0.38495886 7739405
-0.025892546 0.10355808 0.38558382 7739405
-0.025091499 0.10365528 0.38595876 7805198
-0.024281075 0.10371912 0.38620874 7870991
-0.023469638 0.10378307 0.38645872 7936780
-0.022657201 0.1038472 0.38670868 7937034
-0.021843756 0.10391147 0.38695866 8002827
-0.02104287 0.10404302 0.38745859 7937291
-0.020239908 0.10417476 0.38795856 7937291
-0.019434853 0.10430662 0.38845849 7937291
-0.01862172 0.10440507 0.38883346 7871498
-0.017812746 0.10453725 0.3893334 7937291
-0.016996222 0.10463602 0.38970837 7805705
-0.016172947 0.1047014 0.38995835 7740428
-0.015348637 0.10476693 0.3902083 7806221
-0.014523285 0.1048326 0.39045829 7674637
-0.01368813 0.10483134 0.39045829 7739660
-0.012848885 0.10479667 0.39033329 7805453
-0.012010191 0.10476214 0.3902083 7806223
-0.011172047 0.10472779 0.39008331 7740430
-0.010337765 0.10472716 0.39008331 7740430
-0.009503494 0.10472669 0.39008331 7806221
-0.0086692264 0.10472637 0.39008331 7806221
-0.0078349607 0.1047262 0.39008331 7872014
-0.007002939 0.10475975 0.3902083 8003854
-0.0061684004 0.10475992 0.3902083 8069647
-0.0053338544 0.10476024 0.3902083 8003854
-0.0045021786 0.10482782 0.39045829 8003854
-0.0036694196 0.10489558 0.39070827 7872268
-0.0028373841 0.10503057 0.3912082 7872268
-0.0020031892 0.10516576 0.39170817 7872268
-0.0011664579 0.10526754 0.39208311 7872268
-0.00032809371 0.10536947 0.39245808 7675405
0.00051174418 0.10543801 0.39270803 7675405
0.0013522572 0.10547318 0.39283302 7741198
0.0021926472 0.10547492 0.39283302 7741198
0.0030321141 0.10544325 0.39270803 7675405
0.0038698616 0.10537821 0.39245808 7609612
0.0047065876 0.1053133 0.3922081 7675405
0.0055405307 0.10521501 0.39183313 7609612
0.0063769957 0.10518397 0.39170817 7478026
0.0072129853 0.10515312 0.39158317 7478541
0.0080562122 0.10522309 0.39183313 7412748
0.0089005772 0.10529324 0.39208311 7281932
0.0097553972 0.10546423 0.39270803 7216141
0.01061971 0.10570256 0.39358294 7347727
0.011487848 0.10594103 0.39445785 7347727
0.012352001 0.10611257 0.3950828 7281934
0.013202212 0.10614997 0.39520779 7216141
0.014048604 0.10615397 0.39520779 7281934
0.01489038 0.10612457 0.3950828 7216141
0.015726736 0.10606175 0.39483282 7216141
0.016614582 0.10633483 0.39583272 7150605
0.017539902 0.10680957 0.39758253 7019019
0.018443916 0.10711662 0.39870742 7019019
0.019292364 0.10708805 0.39858243 7216398
0.020083535 0.10675743 0.39733255 7216398
0.020566532 0.10488207 0.39033329 7281937
0.021382876 0.1047867 0.38995835 7676695
0.021969842 0.10361671 0.38558382 7744289
0.022796804 0.10362235 0.38558382 7942438
0.023623895 0.10362814 0.38558382 8074024
0.02557346 0.10484964 0.39008331 8074024
0.026402153 0.10482242 0.38995835 8074024
0.027221719 0.10476173 0.38970837 8008488
0.027752405 0.10362596 0.38545883 8008488
-0.076938875 0.10007606 0.36746076 7878444
-0.076139376 0.1000617 0.36746076 7944237
-0.075391471 0.1001156 0.36771071 7812651
-0.074617453 0.10013564 0.3678357 7878444
-0.073893361 0.10022388 0.36821067 7878444
-0.072611101 0.10174779 0.37396005 7944237
-0.071943685 0.1019385 0.37470996 7878444
-0.071202122 0.10202732 0.37508494 7812651
-0.070388883 0.10201436 0.37508494 7944237
-0.069599107 0.10203554 0.37520993 7878444
-0.068740338 0.10195495 0.37495995 7878444
-0.067905575 0.10190852 0.37483495 7944237
-0.067116387 0.10193025 0.37495995 8010030
-0.066304818 0.10191818 0.37495995 8075053
-0.065537184 0.10197423 0.37520993 8075053
-0.064747162 0.10199645 0.37533489 8075053
-0.063956879 0.10201886 0.37545988 8075053
-0.063187331 0.1020754 0.37570986 8009260
-0.062416956 0.1021321 0.37595984 8075053
-0.061625257 0.102155 0.37608483 8009260
-0.060792834 0.10211017 0.37595984 8009258
-0.059941269 0.1020316 0.37570986 8009258
-0.059012335 0.10181747 0.37495995 8075051
-0.058145069 0.10170534 0.37458497 8009260
-0.057375304 0.10176308 0.37483495 8009260
-0.056585826 0.10178705 0.37495995 8075053
-0.056000542 0.10218436 0.37645978 8009258
-0.05550063 0.1027514 0.37858456 8140844
-0.054955658 0.10325063 0.38045937 8009258
-0.054349467 0.1036482 0.3819592 8009258
-0.05343926 0.10346935 0.38133428 8075051
-0.052531939 0.1032907 0.38070932 7943465
-0.048705149 0.10210355 0.37645978 7877672
-0.047863703 0.10202762 0.3762098 7745316
-0.04703914 0.10198577 0.37608483 7876129
-0.046215281 0.10194407 0.37595984 7612957
-0.0455129 0.10217369 0.37683475 7348502
-0.0448514 0.10250507 0.3780846 7413268
-0.044126455 0.10270104 0.37883452 7347475
-0.043284133 0.1026261 0.37858456 7347475
-0.042443037 0.10255135 0.37833458 7347473
-0.041561902 0.10237511 0.37770966 7413266
-0.04069709 0.10223296 0.37720969 7281680
-0.040032811 0.10259907 0.37858456 7411983
-0.039298028 0.10279594 0.37933448 7477776
-0.03850944 0.10285749 0.37958446 7411983
-0.037670258 0.10278372 0.37933448 7411983
-0.036832288 0.10271011 0.3790845 7477776
-0.036268651 0.10341553 0.38170922 7478030
-0.035612632 0.10388399 0.38345903 7478030
-0.03477912 0.10384469 0.38333404 7478030
-0.033968411 0.10387328 0.38345903 7412237
-0.033124857 0.10380044 0.38320905 7478030
-0.03228249 0.1037278 0.3829591 7608846
-0.031441297 0.10365533 0.38270912 7608846
-0.030561274 0.10344761 0.3819592 7543053
-0.029742956 0.10344317 0.3819592 7739662
-0.028934192 0.10347273 0.38208419 7739662
-0.028134182 0.1035363 0.38233414 7673869
-0.027359976 0.10370157 0.3829591 7739405
-0.026574513 0.10383314 0.38345903 7739405
-0.025803775 0.10403254 0.38420895 7805198
-0.024981143 0.10402904 0.38420895 7805198
-0.024174303 0.10409339 0.38445893 7870991
-0.023358867 0.10412406 0.38458392 7870989
-0.022550283 0.1041887 0.38483387 7870987
-0.021747747 0.10428737 0.38520885 7936780
-0.020950451 0.10441999 0.38570878 7870987
-0.020164117 0.10462046 0.38645872 7871498
-0.019368369 0.10478725 0.38708365 7937291
-0.018564006 0.10492034 0.38758358 7871498
-0.01775755 0.10505362 0.38808355 7937291
-0.01694354 0.1051532 0.38845849 7871244
-0.016122779 0.1052191 0.38870847 7806221
-0.015300985 0.10528515 0.38895845 7872014
-0.014468851 0.10528372 0.38895845 7740430
-0.013636747 0.10528244 0.38895845 7674637
-0.012800548 0.10524749 0.38883346 7740430
-0.011964904 0.1052127 0.38870847 7806225
-0.011126229 0.10514422 0.38845849 7740432
-0.010295263 0.10514358 0.38845849 7806225
-0.0094643086 0.10514312 0.38845849 7872018
-0.0086361337 0.10517663 0.38858348 7806223
-0.0078049176 0.10517646 0.38858348 7806223
-0.006975946 0.10521028 0.38870847 8003600
-0.0061444566 0.10521045 0.38870847 8003854
-0.0053163767 0.10527841 0.38895845 7872268
-0.0044872151 0.10534655 0.38920841 8003854
-0.0036581433 0.10544867 0.38958338 7872268
-0.0028283549 0.10558477 0.39008331 7872268
-0.0019970445 0.1057549 0.39070827 7872268
-0.0011626636 0.10589132 0.3912082 7872268
-0.00032590644 0.10596028 0.39145818 7675659
0.00051211618 0.1060632 0.39183313 7675405
0.0013509174 0.10609861 0.39195812 7741198
0.002189595 0.10610039 0.39195812 7741198
0.0030263839 0.10603464 0.39170817 7609612
0.0038621495 0.10596905 0.39145818 7609612
0.0046953936 0.10586978 0.39108321 7675405
0.0055288547 0.1058045 0.39083326 7543819
0.0063613034 0.10573941 0.39058328 7543819
0.0071950438 0.10570826 0.39045829 7543821
0.008030883 0.10571114 0.39045829 7478541
0.0088696275 0.10574802 0.39058328 7412748
0.0097338241 0.10605575 0.39170817 7281932
0.010592793 0.10626216 0.39245808 7347725
0.01145505 0.10646876 0.393208 7347727
0.012304964 0.10654014 0.39345798 7412750
0.013160212 0.10664552 0.39383292 7412750
0.014008266 0.10668341 0.39395791 7281934
0.014852234 0.10668758 0.39395791 7216141
0.0156963 0.10669193 0.39395791 7084555
0.01659294 0.10703495 0.39520779 7216141
0.017511589 0.10747973 0.39683262 7216141
0.01840839 0.10775543 0.39783251 7084555
0.019243024 0.10765891 0.39745754 7216398
0.020069845 0.10752869 0.39695761 7216398
0.020545518 0.10560414 0.38983336 7281937
0.021175854 0.10459378 0.38608375 7742490
0.021968307 0.10443001 0.38545883 7809823
0.022795161 0.10443569 0.38545883 8073254
0.023591509 0.1043061 0.38495886 8073254
0.024417551 0.1043121 0.38495886 8074024
0.025276516 0.10445376 0.38545883 8074024
0.026103899 0.10446008 0.38545883 8074024
0.026913973 0.10439884 0.38520885 8140074
0.027723109 0.10433774 0.38495886 7943465
0.028429365 0.10390414 0.38333404 8009258
0.029081102 0.10330125 0.38108429 7943465
0.029752746 0.10280007 0.37920949 7943465
0.030507172 0.10260397 0.37845957 8009258
0.031289555 0.10250963 0.3780846 8075053
0.03208112 0.10244936 0.37783465 8009260
-0.076901026 0.10082034 0.36721078 7878446
-0.07612779 0.10084017 0.36733577 7878446
-0.075379983 0.1008945 0.36758572 7812653
-0.074555337 0.10084608 0.36746076 7878446
-0.073781714 0.10086643 0.36758572 7878446
-0.073107138 0.10102416 0.36821067 7812653
-0.072163381 0.1019228 0.37158531 7944237
-0.071668968 0.10235507 0.37321013 7878444
-0.070859298 0.10234183 0.37321013 7812651
-0.070026487 0.10229454 0.37308514 7878444
-0.069171295 0.10221315 0.37283516 7944237
-0.06829457 0.10209771 0.37246022 7878444
-0.067419752 0.10198248 0.37208524 7944237
-0.06654682 0.10186743 0.3717103 7878444
-0.065764219 0.10188958 0.37183526 7944237
-0.064981349 0.10191194 0.37196025 8075053
-0.064241312 0.10200291 0.37233523 8075053
-0.063478626 0.10205982 0.37258521 8009260
-0.062736139 0.10215112 0.37296015 8009260
-0.062054556 0.10234528 0.37371007 8075053
-0.061288036 0.10240265 0.37396005 8009260
-0.060439814 0.10232328 0.37371007 8140076
-0.059592929 0.10224414 0.37346011 8140076
-0.05858995 0.10189144 0.37221023 8205869
-0.057631411 0.10160739 0.37121034 8140076
-0.056830499 0.10159728 0.37121034 8205869
-0.056029797 0.10158731 0.37121034 8205869
-0.055415269 0.10191952 0.37246022 8140074
-0.054923855 0.10249124 0.37458497 8271660
-0.054351266 0.10292625 0.3762098 8205867
-0.053700741 0.10322458 0.37733468 8140074
-0.052835345 0.10311276 0.37695974 8140074
-0.051747523 0.10255672 0.37495995 8074281
-0.050481729 0.10162493 0.37158531 8074281
-0.049447894 0.10113779 0.3698355 7876902
-0.048389945 0.10224891 0.37396005 7811109
-0.047553699 0.10217241 0.37371007 7745316
-0.046734337 0.10213026 0.37358508 7941409
-0.045915693 0.10208828 0.37346011 7610904
-0.04523363 0.10235395 0.37445998 7479318
-0.044636406 0.1028247 0.3762098 7413268
-0.043857101 0.10288567 0.37645978 7413268
-0.043076873 0.10294677 0.37670976 7478291
-0.042043302 0.10239328 0.37470996 7412498
-0.041100997 0.10204491 0.37346011 7478289
-0.040285598 0.10200413 0.37333512 7412496
-0.039470866 0.10196348 0.37321013 7346703
-0.038747471 0.10216204 0.37396005 7412496
-0.037970249 0.10222416 0.37421003 7346703
-0.037192091 0.10228641 0.37445998 7346703
-0.036485869 0.10255369 0.37545988 7412496
-0.035870496 0.10309418 0.37745968 7412750
-0.035200231 0.10349824 0.37895951 7412750
-0.034410231 0.10356109 0.37920949 7412750
-0.033663567 0.10376061 0.3799594 7412750
-0.032881383 0.10385789 0.38033438 7412750
-0.03207662 0.10388705 0.38045937 7412237
-0.031261157 0.10388226 0.38045937 7608846
-0.030445797 0.10387764 0.38045937 7543053
-0.029630531 0.10387316 0.38045937 7739662
-0.028843751 0.10397122 0.38083431 7739662
-0.028055459 0.10406943 0.38120928 7673869
-0.027265647 0.10416781 0.38158423 7739405
-0.026500296 0.10436869 0.38233414 7739405
-0.025698233 0.10443325 0.38258412 7805198
-0.024887044 0.10446385 0.38270912 7805198
-0.024059676 0.10442638 0.38258412 7870991
-0.023240499 0.10442317 0.38258412 7870989
-0.022428717 0.10445428 0.38270912 7805196
-0.021644687 0.10462195 0.38333404 7936782
-0.020858036 0.10478977 0.383959 7870987
-0.020075291 0.10499188 0.38470891 7871498
-0.019289386 0.10519414 0.38545883 7871498
-0.018488344 0.10532831 0.38595876 7871498
-0.017685207 0.10546267 0.38645872 7937291
-0.016879965 0.10559718 0.38695866 7740428
-0.016062258 0.10566363 0.38720864 7806223
-0.015243508 0.10573021 0.38745859 7872016
-0.014414422 0.10572875 0.38745859 7740432
-0.013580984 0.10569338 0.38733363 7740432
-0.012748101 0.10565814 0.38720864 7740432
-0.011911925 0.10558896 0.38695866 7806225
-0.011083993 0.10558815 0.38695866 7740432
-0.010252764 0.1055534 0.38683367 7806225
-0.0094281696 0.10558701 0.38695866 7872018
-0.0086030457 0.10562079 0.38708365 7806225
-0.0077773882 0.10565472 0.38720864 7806225
-0.0069511975 0.10568883 0.38733363 7872016
-0.0061264411 0.1057572 0.38758358 7872014
-0.005298899 0.10579161 0.38770857 7872014
-0.004472252 0.10586029 0.38795856 8003854
-0.0036468678 0.10599734 0.38845849 7872268
-0.0028211363 0.10620277 0.38920841 7872268
-0.001990898 0.10634016 0.38970837 7872268
-0.0011588655 0.10651179 0.39033329 7872268
-0.00032402633 0.10664949 0.39083326 7872268
0.00051249348 0.10668505 0.39095822 7675405
0.0013500153 0.10675487 0.3912082 7741198
0.0021872488 0.10675666 0.3912082 7741198
0.0030225918 0.10669036 0.39095822 7609612
0.0038556783 0.10659012 0.39058328 7609612
0.0046887095 0.10652415 0.39033329 7675405
0.0055189561 0.10642424 0.38995835 7543819
0.0063496898 0.1063586 0.38970837 7609612
0.0071794121 0.10629309 0.38945839 7543819
0.008008128 0.10622774 0.38920841 7478539
0.0088670738 0.10653783 0.39033329 7412746
0.0096998354 0.10650691 0.3902083 7412748
0.010569259 0.10685147 0.39145818 7478541
0.01140769 0.10685502 0.39145818 7412748
0.012257931 0.10696109 0.39183313 7412748
0.013097329 0.10696495 0.39183313 7412748
0.013950155 0.10707138 0.3922081 7478541
0.014814105 0.10724619 0.39283302 7346955
0.015670866 0.10735294 0.393208 7346955
0.016555581 0.10763048 0.39420789 7281932
0.017472265 0.10807884 0.39583272 7216139
0.018396026 0.10852741 0.39745754 7084555
0.019217912 0.10836184 0.39683262 7216141
0.020062516 0.10833298 0.39670762 7281934
0.020531133 0.10635868 0.38945839 7281937
0.021167628 0.10537425 0.38583377 7742490
0.021973947 0.10527743 0.38545883 7809823
0.022771388 0.10514662 0.38495886 8073254
0.023582142 0.10508425 0.38470891 8007461
0.024399873 0.10505614 0.38458392 8074024
0.025233613 0.10509653 0.38470891 8139817
0.026059551 0.10510289 0.38470891 8074024
0.026894374 0.10514359 0.38483387 8140074
0.027693862 0.10504785 0.38445893 8074281
0.028408445 0.10464488 0.3829591 8140074
0.029078586 0.1041054 0.3809593 7943465
0.029759888 0.10363431 0.37920949 7943465
0.030504387 0.10340248 0.37833458 8009258
0.031286653 0.10330737 0.37795961 8075053
0.032078106 0.10324661 0.37770966 8009260
0.032890409 0.10325432 0.37770966 7943467
0.033702884 0.10326221 0.37770966 8009260
0.034515537 0.10327023 0.37770966 8009260
0.03534006 0.10331263 0.37783465 8075053
0.036165304 0.10335517 0.37795961 8075053
0.037125785 0.10377388 0.37945947 8009260
0.038592827 0.10556019 0.38595876 8009260
0.040458299 0.10833836 0.3960827 8075053
0.041442029 0.10868973 0.39733255 8009260
0.041512225 0.10457153 0.38220918 8009260
0.042170189 0.10417076 0.38070932 7944237
-0.076758586 0.10142568 0.36646086 7878444
-0.076012708 0.10148025 0.36671081 7878444
-0.07534299 0.10163878 0.36733577 7878444
-0.074569426 0.10165912 0.36746076 7747373
-0.073770538 0.10164507 0.36746076 7813166
-0.073046416 0.10173491 0.3678357 7747371
-0.07232099 0.10182489 0.36821067 7813164
-0.071812719 0.10222606 0.36971051 7813164
-0.071346253 0.10269643 0.37146032 7878442
-0.070492744 0.10261405 0.37121034 7812649
-0.069593675 0.10246278 0.3707104 7878442
-0.068743445 0.1023808 0.37046042 7944235
-0.067894593 0.10229903 0.37021044 7878442
-0.067001797 0.10214838 0.36971051 7944235
-0.06606669 0.10192892 0.36896059 7878442
-0.065267757 0.10191681 0.36896059 7878442
-0.064469077 0.10190487 0.36896059 8075051
-0.063713804 0.10196215 0.36921054 8075051
-0.062957719 0.10201961 0.36946052 8009258
-0.062200792 0.10207723 0.36971051 8075051
-0.06140152 0.10206597 0.36971051 8009258
-0.060602501 0.10205491 0.36971051 7943465
-0.059763279 0.10197502 0.36946052 8140074
-0.058945332 0.10192984 0.36933553 8140074
-0.058069117 0.10178133 0.3688356 8140074
-0.057175893 0.10159857 0.36821067 8140074
-0.056419548 0.10165739 0.36846063 8140074
-0.05564348 0.1016819 0.36858562 8205867
-0.054941479 0.10184446 0.36921054 8140074
-0.054255333 0.10204166 0.36996049 8140074
-0.053584211 0.10227345 0.37083539 8140074
-0.052767217 0.10222963 0.3707104 8140074
-0.05195095 0.10218597 0.37058541 8074281
-0.051049169 0.1019702 0.3698355 8008488
-0.050184771 0.10182355 0.36933553 8074281
-0.049372844 0.10178047 0.36921054 7876902
-0.048578098 0.10177198 0.36921054 7811109
-0.04812324 0.10248713 0.37183526 7811109
-0.04732319 0.10247894 0.37183526 7745316
-0.046538979 0.10250538 0.37196025 7546910
-0.045739021 0.10249752 0.37196025 7676443
-0.044954337 0.10252429 0.37208524 7479064
-0.044273097 0.10279225 0.37308514 7479061
-0.043456648 0.10275044 0.37296015 7413268
-0.042655192 0.10274324 0.37296015 7347475
-0.041615449 0.10215092 0.37083539 7347475
-0.040695038 0.10183425 0.36971051 7412496
-0.039860539 0.10172432 0.36933553 7412496
-0.039041009 0.10164899 0.36908558 7412496
-0.038261551 0.10167711 0.36921054 7412496
-0.037532426 0.10184306 0.3698355 7412496
-0.036825582 0.10207798 0.3707104 7412496
-0.036212284 0.10258833 0.37258521 7412750
-0.035638589 0.10323646 0.37495995 7412750
-0.03495032 0.10357498 0.3762098 7412750
-0.034166049 0.10363834 0.37645978 7412750
-0.033380833 0.10370188 0.37670976 7412750
-0.032648686 0.1039376 0.37758467 7412750
-0.031891815 0.10410465 0.37820959 7346957
-0.03109128 0.10413423 0.37833458 7608846
-0.030310318 0.10423279 0.37870955 7608846
-0.029527843 0.10433149 0.3790845 7608846
-0.028743858 0.10443036 0.37945947 7739662
-0.027958347 0.10452936 0.37983441 7673869
-0.027171327 0.10462854 0.38020939 7673869
-0.026408765 0.10483103 0.3809593 7673869
-0.025601089 0.10486173 0.38108429 7673869
-0.024784828 0.1048582 0.38108429 7739662
-0.023960771 0.10482042 0.3809593 7739662
-0.023144918 0.10481722 0.3809593 7805455
-0.022343773 0.10488292 0.38120928 7739660
-0.021562796 0.10505196 0.38183421 7871246
-0.020785997 0.10525556 0.38258412 7871244
-0.019999513 0.1054249 0.38320905 7871244
-0.019210408 0.10559441 0.383834 7871244
-0.018406695 0.10569528 0.38420895 7871244
-0.017601421 0.10579635 0.38458392 7740428
-0.016794583 0.10589756 0.38495886 7806221
-0.015980992 0.10596454 0.38520885 8003602
-0.015171284 0.10606605 0.38558382 7872016
-0.014350697 0.10609896 0.38570878 7806225
-0.013525222 0.10609768 0.38570878 7740432
-0.012695655 0.10606215 0.38558382 7740432
-0.011866644 0.10602682 0.38545883 7806225
-0.011041762 0.106026 0.38545883 7806225
-0.010220206 0.10605972 0.38558382 7872018
-0.0093981232 0.10609359 0.38570878 7872018
-0.0085782921 0.10616203 0.38595876 7740432
-0.0077573932 0.10623062 0.38620874 7740432
-0.0069331792 0.10626499 0.38633373 7806223
-0.0061084265 0.10629953 0.38645872 7872014
-0.0052848388 0.10636859 0.38670868 7872014
-0.0044616116 0.10647221 0.38708365 8003600
-0.0036391108 0.10664475 0.38770857 7872268
-0.0028130107 0.10678307 0.38820854 7872268
-0.0019853872 0.10695592 0.38883346 7872268
-0.001155064 0.10712896 0.38945839 7872268
-0.00032193362 0.10726775 0.38995835 7872268
0.00051320466 0.10737234 0.39033329 7675405
0.0013491201 0.10740837 0.39045829 7741198
0.0021849109 0.10741015 0.39045829 7741198
0.0030188097 0.10734332 0.3902083 7609612
0.0038516847 0.10727666 0.38995835 7609612
0.0046835393 0.10721015 0.38970837 7675405
0.0055143763 0.1071438 0.38945839 7609612
0.006346236 0.10711201 0.3893334 7609612
0.007173012 0.10701159 0.38895845 7543819
0.0080008171 0.10694572 0.38870847 7543819
0.0088361381 0.10698318 0.38883346 7478026
0.0097093629 0.10743349 0.39045829 7412748
0.010582869 0.10781518 0.39183313 7412748
0.01142591 0.10785317 0.39195812 7412748
0.012242188 0.10765057 0.3912082 7412748
0.012950863 0.10658825 0.38733363 7478541
0.013785318 0.10662667 0.38745859 7478541
0.01468169 0.10711241 0.38920841 7412748
0.015655417 0.10807994 0.39270803 7346955
0.016507735 0.10815334 0.39295802 7281932
0.017471593 0.10891491 0.39570773 7281932
0.018389486 0.1093327 0.39720756 7216141
0.019223103 0.10923462 0.39683262 7281934
0.020029936 0.10899907 0.39595771 7281934
0.021166302 0.10618854 0.38570878 7742488
0.021944003 0.1059533 0.38483387 7809823
0.022777235 0.1059935 0.38495886 8073508
0.023588145 0.10593064 0.38470891 8007715
0.02440604 0.10590234 0.38458392 8074024
0.025223542 0.1058742 0.38445893 8139817
0.026049109 0.10588063 0.38445893 8074024
0.026874823 0.10588723 0.38445893 8140074
0.027655654 0.10572187 0.383834 8074281
0.028229922 0.10479921 0.38045937 8140074
0.028980695 0.10456523 0.37958446 7943465
0.029757287 0.10443464 0.3790845 7943465
0.030501658 0.10420092 0.37820959 8009258
0.031273477 0.10407066 0.37770966 8075053
0.032085773 0.10407826 0.37770966 8009260
0.032887354 0.10405161 0.37758467 8009260
0.033699725 0.10405957 0.37758467 8009260
0.034523692 0.10410211 0.37770966 8009260
0.035336688 0.10411038 0.37770966 8075053
0.036161836 0.10415331 0.37783465 8009258
0.037097782 0.10450648 0.3790845 8009258
0.03857683 0.10634164 0.38570878 8009258
0.040429406 0.10910774 0.39570773 8009258
0.041373424 0.10935855 0.39658263 8009258
0.041230109 0.10678315 0.38720864 8009258
0.041426774 0.10517267 0.38133428 8009260
0.042235307 0.10514788 0.38120928 7944237
0.043043517 0.10512327 0.38108429 7944237
-0.07597544 0.10222271 0.36646086 7943467
-0.075280465 0.10234764 0.36696079 7878444
-0.074482165 0.10233329 0.36696079 7747371
-0.073709279 0.10235397 0.36708578 7813164
-0.072787203 0.10216577 0.36646086 7812651
-0.071868159 0.10197779 0.36583591 7878444
-0.069841273 0.10246002 0.36771071 8009258
-0.069184288 0.10265587 0.36846063 8009258
-0.068431534 0.10271257 0.36871061 7944235
-0.067655049 0.10273463 0.3688356 7944235
-0.066674426 0.10244359 0.3678357 7944235
-0.065676011 0.10211797 0.36671081 7878442
-0.064859658 0.10207105 0.36658585 8009258
-0.064087793 0.10209388 0.36671081 8009258
-0.06331566 0.10211689 0.3668358 8009258
-0.062543213 0.10214005 0.36696079 8009258
-0.061749469 0.10212862 0.36696079 8009258
-0.060955975 0.10211737 0.36696079 8009258
-0.06014223 0.10207149 0.3668358 8140074
-0.059329253 0.10202582 0.36671081 8140074
-0.05855697 0.10204987 0.3668358 8205867
-0.057745006 0.10200456 0.36671081 8205867
-0.056992054 0.1020637 0.36696079 8140074
-0.056219105 0.10208825 0.36708578 8140074
-0.055483583 0.10218249 0.36746076 8140074
-0.054746643 0.10227687 0.3678357 8140074
-0.053989973 0.10233666 0.36808568 8140074
-0.053214382 0.10236187 0.36821067 8074281
-0.05242065 0.10235249 0.36821067 8074281
-0.051592071 0.10227379 0.36796069 8008488
-0.050747517 0.10216057 0.36758572 7876902
-0.049904767 0.1020475 0.36721078 8008488
-0.049130686 0.10207357 0.36733577 7876902
-0.048356257 0.10209981 0.36746076 7811109
-0.047727074 0.1024387 0.36871061 7811109
-0.047108606 0.10281247 0.37008545 7745316
-0.046281062 0.10273498 0.3698355 7612190
-0.045470133 0.10269237 0.36971051 7676443
-0.04470522 0.10275409 0.36996049 7479064
-0.043909732 0.10274654 0.36996049 7347478
-0.04311439 0.10273916 0.36996049 7347475
-0.042290624 0.10266252 0.36971051 7347475
-0.04139794 0.10241257 0.3688356 7347475
-0.040564202 0.10230161 0.36846063 7281680
-0.039745707 0.10222552 0.36821067 7215887
-0.038928427 0.1021496 0.36796069 7281680
-0.038125318 0.10210857 0.3678357 7281680
-0.037360922 0.10217175 0.36808568 7215887
-0.036608014 0.10226982 0.36846063 7412750
-0.036023714 0.10285366 0.37058541 7412237
-0.035394773 0.10333356 0.37233523 7478030
-0.034700371 0.10364012 0.37346011 7543823
-0.033967227 0.10384276 0.37421003 7478030
-0.033253137 0.10411493 0.37520993 7543823
-0.032502431 0.10428318 0.37583485 7478030
-0.031749159 0.10445157 0.37645978 7478030
-0.030972764 0.10455078 0.37683475 7608846
-0.030314913 0.10506622 0.37870955 7608846
-0.029522546 0.10513103 0.37895951 7608846
-0.028710259 0.10512666 0.37895951 7739662
-0.027898055 0.10512244 0.37895951 7739662
-0.027112745 0.1052224 0.37933448 7739662
-0.026308581 0.10525321 0.37945947 7739660
-0.025503958 0.10528415 0.37958446 7739660
-0.024698872 0.10531524 0.37970942 7739662
-0.023885459 0.10531185 0.37970942 7739662
-0.023087306 0.10537793 0.3799594 7805455
-0.022302803 0.10551351 0.38045937 7673867
-0.021509154 0.10561458 0.38083431 7739658
-0.020720754 0.10575047 0.38133428 7805451
-0.019930264 0.1058865 0.38183421 7805451
-0.019131431 0.10598808 0.38220918 7805451
-0.018325048 0.10605511 0.38245913 7871244
-0.017523361 0.10615697 0.38283411 7806221
-0.016720107 0.10625897 0.38320905 7872014
-0.015915288 0.10636115 0.38358402 7872786
-0.015108897 0.10646351 0.383959 7675409
-0.014291629 0.10649668 0.38408396 7741202
-0.013473851 0.10653003 0.38420895 7675409
-0.012655563 0.10656353 0.38433394 7871764
-0.01183291 0.10656256 0.38433394 7871764
-0.011013854 0.10659638 0.38445893 8003350
-0.010194276 0.10663038 0.38458392 8003350
-0.0093741752 0.10666455 0.38470891 7872018
-0.0085563185 0.10673349 0.38495886 7740432
-0.0077348882 0.10676797 0.38508385 7740432
-0.0069129211 0.10680261 0.38520885 7806223
-0.00609239 0.1068721 0.38545883 7806221
-0.005270781 0.10694172 0.38570878 7872014
-0.0044480888 0.10701149 0.38595876 7872014
-0.0036290062 0.10722006 0.38670868 8003854
-0.0028057885 0.10739414 0.38733363 8003854
-0.001979874 0.10756838 0.38795856 7872268
-0.0011512586 0.10774278 0.38858348 7872268
-0.00031993931 0.10791737 0.38920841 7872268
0.00051375828 0.1080228 0.38958338 7675659
0.0013482322 0.10805907 0.38970837 7741452
0.0021825803 0.10806086 0.38970837 7741452
0.0030169713 0.10806282 0.38970837 7675405
0.0038489376 0.10799563 0.38945839 7609612
0.0046813851 0.10796324 0.3893334 7609612
0.0055115819 0.10789639 0.38908345 7609612
0.0063387249 0.10779501 0.38870847 7675405
0.0071643218 0.10769378 0.3883335 7609612
0.0080038169 0.10780068 0.38870847 7478539
0.0088364622 0.10780378 0.38870847 7478539
0.0097127035 0.10829236 0.39045829 7412748
0.010549244 0.1082958 0.39045829 7478541
0.011400436 0.10843806 0.39095822 7281932
0.012113007 0.10733247 0.38695866 7281932
0.012825239 0.10636562 0.38345903 7347725
0.01361152 0.10609227 0.38245913 7347725
0.01452094 0.1067552 0.38483387 7281932
0.015495461 0.10779978 0.38858348 7281932
0.016496668 0.10891397 0.39258307 7281932
0.017454399 0.10964694 0.39520779 7281932
0.018377194 0.11010276 0.39683262 7281934
0.01925862 0.11028132 0.39745754 7281934
0.020003706 0.10969709 0.39533275 7281934
0.022561222 0.10580027 0.38120928 8073508
0.023433229 0.10604905 0.38208419 8073508
0.024261527 0.10608988 0.38220918 8204840
0.025098689 0.10616554 0.38245913 8139817
0.027401298 0.10556081 0.38020939 8074281
0.028209066 0.10553303 0.3800844 8140074
0.028978271 0.10536659 0.37945947 8074281
0.02975475 0.10523498 0.37895951 8074281
0.030509083 0.10503409 0.37820959 8140074
0.031291399 0.10493749 0.37783465 8205867
0.032082889 0.10487576 0.37758467 8140074
0.032884363 0.10484888 0.37745968 8009258
0.03370779 0.10489162 0.37758467 8009258
0.034520503 0.1048998 0.37758467 8009258
0.035345089 0.10494288 0.37770966 8075051
0.036158439 0.1049514 0.37770966 8009258
0.037069846 0.10523795 0.37870955 8009258
0.038285833 0.10635835 0.38270912 8075051
0.040030178 0.10886861 0.39170817 8075051
0.041079994 0.10722011 0.38570878 8009258
0.041341357 0.10577046 0.38045937 8009260
0.042231277 0.10595398 0.38108429 7944237
0.043053515 0.10596395 0.38108429 7878444
-0.075192407 0.10302023 0.36646086 7812651
-0.07442037 0.1030409 0.36658585 7878444
-0.073572814 0.10295637 0.36633587 7878444
-0.072478332 0.10252082 0.36483604 7812651
-0.070973217 0.10148858 0.36121142 7943467
-0.069654159 0.10070258 0.35846171 7943467
-0.068971723 0.10082977 0.35896164 7943467
-0.068762302 0.10165919 0.36196133 7943467
-0.068352349 0.10220776 0.36396113 8009260
-0.067910798 0.10272129 0.36583591 8009258
-0.066979863 0.10249796 0.36508599 8009258
-0.065939173 0.10209947 0.36371115 8009258
-0.065106213 0.10201699 0.36346117 7943465
-0.0642967 0.10196976 0.36333618 8140074
-0.063619077 0.10213315 0.36396113 8140074
-0.063003756 0.10240189 0.364961 8140074
-0.062235203 0.10242531 0.36508599 8074281
-0.061424296 0.10237875 0.364961 8140074
-0.060634948 0.10236746 0.364961 8140074
-0.059784357 0.10225117 0.36458606 8140074
-0.058996294 0.10224024 0.36458606 8140074
-0.058228426 0.10226452 0.36471105 8205867
-0.057499617 0.10235906 0.36508599 8140074
-0.056769419 0.10245375 0.36546096 8140074
-0.056076109 0.10261867 0.36608589 8074281
-0.055361453 0.10274869 0.36658585 8074281
-0.054626245 0.10284384 0.36696079 8074281
-0.0538713 0.10290412 0.36721078 8140328
-0.053079359 0.10289451 0.36721078 8074535
-0.052287608 0.10288506 0.36721078 8074535
-0.051408421 0.10270072 0.36658585 8008488
-0.050532132 0.10251657 0.3659609 7876902
-0.049658731 0.10233264 0.36533597 8008488
-0.048738036 0.10204387 0.36433607 7876902
-0.047953453 0.10203537 0.36433607 7810852
-0.047347046 0.10241204 0.36571094 7745059
-0.046750799 0.10282382 0.36721078 7875362
-0.045991845 0.10288574 0.36746076 7546397
-0.04524735 0.1029828 0.3678357 7676443
-0.044486303 0.10304504 0.36808568 7479064
-0.043709524 0.10307246 0.36821067 7347478
-0.042932346 0.10310003 0.36833566 7281939
-0.042126197 0.10305779 0.36821067 7347473
-0.041306701 0.10298074 0.36796069 7347473
-0.040488426 0.10290387 0.36771071 7281680
-0.03967138 0.10282719 0.36746076 7281680
-0.038855534 0.10275067 0.36721078 7347473
-0.038066827 0.10274428 0.36721078 7347473
-0.037278239 0.10273805 0.36721078 7478030
-0.036551885 0.10290682 0.3678357 7478030
-0.03582298 0.10307571 0.36846063 7412237
-0.035127163 0.10334966 0.36946052 7478030
-0.034578167 0.10407825 0.37208524 7543823
-0.033791084 0.10410771 0.37221023 7609616
-0.033147603 0.10459178 0.37396005 7543823
-0.03244267 0.1049012 0.37508494 7478030
-0.031690847 0.10507093 0.37570986 7478030
-0.030956995 0.10531075 0.37658477 7674639
-0.030179463 0.10541087 0.37695974 7674639
-0.02951728 0.10593054 0.37883452 7608846
-0.028714569 0.10596108 0.37895951 7805455
-0.0278838 0.10588694 0.37870955 7805455
-0.027000582 0.10560331 0.37770966 7739660
-0.026199736 0.10563433 0.37783465 7871246
-0.025398429 0.10566553 0.37795961 7805453
-0.02460479 0.10573183 0.37820959 7739660
-0.023810159 0.1057983 0.37845957 7739660
-0.023044907 0.10600469 0.37920949 7739660
-0.022261847 0.10614132 0.37970942 7673867
-0.021469645 0.10624321 0.3800844 7739660
-0.020675899 0.10634524 0.38045937 7739660
-0.019880598 0.10644743 0.38083431 7805451
-0.019077487 0.10651483 0.38108429 7805451
-0.018273352 0.10658241 0.38133428 7871244
-0.017468188 0.10665014 0.38158423 7871244
-0.016667452 0.10675297 0.3819592 8002830
-0.015859962 0.10682105 0.38220918 7872016
-0.015051431 0.10688925 0.38245913 7872016
-0.014241862 0.10695763 0.38270912 7872016
-0.013431251 0.10702618 0.3829591 7872018
-0.012619589 0.10709487 0.38320905 8003350
-0.011806878 0.10716374 0.38345903 8003350
-0.010993115 0.10723278 0.38370901 8003350
-0.01017498 0.10726704 0.383834 8003604
-0.0093563208 0.10730147 0.383959 7872018
-0.0085371295 0.10733604 0.38408396 7740432
-0.0077174096 0.10737081 0.38420895 7740432
-0.0068949074 0.10737079 0.38420895 7740430
-0.0060763541 0.10744081 0.38445893 7806223
-0.0052567227 0.10751098 0.38470891 7872016
-0.0044360082 0.10758131 0.38495886 7872014
-0.0036189009 0.10779153 0.38570878 8003854
-0.0027985645 0.1080019 0.38645872 8003854
-0.0019743575 0.10817753 0.38708365 8003854
-0.0011474497 0.10835331 0.38770857 7872268
-0.00031783737 0.10852926 0.3883335 7872268
0.00051415263 0.10863553 0.38870847 7741452
0.001347351 0.10870703 0.38895845 7873038
0.0021809586 0.10874377 0.38908345 7675405
0.0030141759 0.10874574 0.38908345 7741198
0.0038462034 0.10871295 0.38895845 7675405
0.0046777446 0.10868032 0.38883346 7609612
0.0055088033 0.10864782 0.38870847 7609612
0.0063332673 0.10851073 0.38820854 7675405
0.0071602608 0.10844363 0.38795856 7478026
0.0079913978 0.10844657 0.38795856 7544332
0.0088396529 0.10865933 0.38870847 7544332
0.0097129662 0.10911684 0.39033329 7478539
0.01055278 0.10915524 0.39045829 7478539
0.011389559 0.10915886 0.39045829 7281930
0.012077701 0.10783482 0.38570878 7281932
0.012737203 0.10644095 0.38070932 7347725
0.013544439 0.1063751 0.38045937 7347725
0.014360134 0.10637929 0.38045937 7281932
0.015395278 0.10792139 0.38595876 7281932
0.016459363 0.10949875 0.39158317 7281932
0.017464843 0.11055207 0.39533275 7281932
0.018382307 0.11097656 0.39683262 7281932
0.019154871 0.11052739 0.39520779 7347725
0.019825686 0.10955396 0.39170817 7347473
0.020283774 0.10753188 0.38445893 7545879
0.020456959 0.1042162 0.37258521 7875616
0.021278098 0.10432664 0.37296015 8073254
0.022130566 0.10457709 0.37383506 8007461
0.02307893 0.10524732 0.3762098 8073254
0.024101108 0.10619755 0.37958446 8073254
0.024973825 0.10644864 0.38045937 8204840
0.025680987 0.10600047 0.37883452 8205610
0.02632012 0.10530762 0.37633479 8205610
0.027128853 0.10531437 0.37633479 8074281
0.027928459 0.10528629 0.3762098 8140074
0.03197385 0.10532329 0.3762098 8140074
0.032892331 0.10568111 0.37745968 8009258
0.033704765 0.10568919 0.37745968 8009258
0.034528807 0.10573245 0.37758467 8009258
0.035341866 0.1057409 0.37758467 8009258
0.036179047 0.10581949 0.37783465 8009258
0.037017491 0.10589826 0.3780846 8009258
0.037882213 0.10604725 0.37858456 8075051
0.039145347 0.10728186 0.3829591 8009258
0.03999703 0.10736126 0.38320905 8009258
0.040517144 0.10656541 0.38033438 8009258
0.04135108 0.1066101 0.38045937 8009260
0.042171918 0.10661995 0.38045937 7944237
0.043049466 0.10677009 0.3809593 7944237
-0.074358679 0.10374739 0.36621088 7878444
-0.071722463 0.10223202 0.36096144 7812651
-0.070446514 0.10151033 0.35846171 7943467
-0.069473207 0.10121366 0.35746181 7943467
-0.068744749 0.10127113 0.35771179 7877674
-0.068086736 0.10143488 0.35833672 8009260
-0.067473248 0.10166951 0.35921162 8009260
-0.066925876 0.10201038 0.3604615 8009260
-0.066075191 0.1018916 0.36008653 8009258
-0.065181091 0.10170227 0.35946161 7943465
-0.06444671 0.10176069 0.35971156 7943465
-0.063711509 0.10181927 0.35996154 8140074
-0.063106611 0.10209011 0.36096144 8140074
-0.062583946 0.10250244 0.36246127 8074281
-0.06188456 0.10263212 0.36296123 8074281
-0.061099108 0.10262061 0.36296123 8140074
-0.060313907 0.10260926 0.36296123 8074281
-0.059487943 0.10252742 0.36271125 8140074
-0.058703758 0.10251644 0.36271125 8140074
-0.057939783 0.10254098 0.36283624 8140074
-0.057254232 0.10270693 0.36346117 8140074
-0.056585629 0.10290834 0.36421108 8074281
-0.055971462 0.10321584 0.36533597 8074281
-0.055277146 0.1033822 0.3659609 8074281
-0.054543115 0.10347809 0.36633587 8008488
-0.053771008 0.10350355 0.36646086 8140328
-0.052962434 0.10345857 0.36633587 8008742
-0.052154601 0.10341377 0.36621088 8074535
-0.051242322 0.10315739 0.36533597 8074535
-0.05033401 0.10290123 0.36446106 8140074
-0.049446665 0.1026806 0.36371115 8008488
-0.048546001 0.10242486 0.36283624 8008488
-0.047780927 0.10245159 0.36296123 7745059
-0.04699932 0.10244321 0.36296123 7745059
-0.046408854 0.10285826 0.36446106 7744289
-0.045765173 0.10316762 0.36558595 7481117
-0.045055311 0.10333604 0.36621088 7479834
-0.044312712 0.10343406 0.36658585 7348502
-0.043538973 0.10346168 0.36671081 7348502
-0.042764865 0.10348948 0.3668358 7216916
-0.04199037 0.10351745 0.36696079 7347730
-0.041173387 0.10343982 0.36671081 7347730
-0.040385161 0.10343286 0.36671081 7347473
-0.039570089 0.10335559 0.36646086 7347473
-0.038782682 0.10334896 0.36646086 7347473
-0.03798246 0.10330729 0.36633587 7478289
-0.03722097 0.10337149 0.36658585 7478030
-0.036495805 0.10354159 0.36721078 7478030
-0.035743777 0.10364135 0.36758572 7412237
-0.035049684 0.10391746 0.36858562 7478030
-0.034316573 0.10408799 0.36921054 7543823
-0.033546843 0.10415296 0.36946052 7609616
-0.032997765 0.10492276 0.37221023 7543823
-0.032328866 0.10534031 0.37371007 7543823
-0.031632558 0.10568754 0.37495995 7543823
-0.030889884 0.10589398 0.37570986 7609616
-0.030144092 0.10610058 0.37645978 7674639
-0.029375702 0.1062369 0.37695974 7674639
-0.028681038 0.10665514 0.37845957 7805455
-0.027841963 0.10654519 0.3780846 7805455
-0.026924169 0.10611845 0.37658477 7739660
-0.026099559 0.10604405 0.37633479 7871244
-0.025292907 0.1060403 0.37633479 7805451
-0.024486326 0.1060367 0.37633479 7805451
-0.023734869 0.10627976 0.37720969 7739660
-0.022987327 0.1065582 0.37820959 7739660
-0.02222091 0.10676636 0.37895951 7739660
-0.021437215 0.10690425 0.37945947 7739658
-0.020644644 0.10700709 0.37983441 7739658
-0.019843996 0.10707486 0.3800844 7805451
-0.019042328 0.10714283 0.38033438 7805451
-0.018239638 0.10721093 0.38058433 7871244
-0.017430194 0.10724398 0.38070932 7871244
-0.016625712 0.10731242 0.3809593 8002830
-0.015820201 0.10738102 0.38120928 7872016
-0.015013648 0.10744976 0.38145924 7872016
-0.014210708 0.10755389 0.38183421 7872016
-0.013401805 0.10762299 0.38208419 7872018
-0.012595973 0.10772742 0.38245913 8003350
-0.011784702 0.10779683 0.38270912 8003350
-0.010972381 0.1078664 0.3829591 8003350
-0.010155688 0.10790092 0.38308409 8069143
-0.0093384692 0.10793563 0.38320905 8003350
-0.0085179424 0.10793527 0.38320905 7806225
-0.0076999315 0.1079703 0.38333404 7740432
-0.0068791397 0.10797027 0.38333404 7740432
-0.0060603186 0.10800564 0.38345903 7872016
-0.0052409568 0.10804115 0.38358402 7872016
-0.0044268076 0.10821765 0.38420895 7872014
-0.0036099677 0.10839431 0.38483387 8003854
-0.0027904334 0.10857113 0.38545883 8003854
-0.0019688385 0.10878335 0.38620874 8003854
-0.0011436375 0.10896052 0.38683367 7872268
-0.00031573127 0.10913786 0.38745859 7872268
0.00051471789 0.10928016 0.38795856 7872784
0.0013464771 0.10935223 0.38820854 7872784
0.0021786448 0.10938925 0.3883335 7675405
0.0030104213 0.10939121 0.3883335 7741198
0.0038422442 0.10939337 0.3883335 7675405
0.0046726121 0.10936049 0.38820854 7609612
0.0055042696 0.10936295 0.38820854 7609612
0.0063278233 0.10922476 0.38770857 7675405
0.0071562189 0.10919234 0.38758358 7543819
0.007989293 0.10923053 0.38770857 7544332
0.0088258116 0.10930409 0.38795856 7675918
0.0096790288 0.10955392 0.38883346 7281930
0.010556346 0.11001521 0.39045829 7347723
0.011298471 0.10910322 0.38720864 7281930
0.012061979 0.10850831 0.38508385 7347725
0.01272444 0.10713871 0.38020939 7347725
0.013526313 0.10703709 0.37983441 7347725
0.014326674 0.10693566 0.37945947 7281932
0.015359901 0.10848988 0.38495886 7281932
0.016406311 0.10997397 0.3902083 7281932
0.017409058 0.11103561 0.39395791 7281932
0.018306389 0.11135774 0.3950828 7281932
0.018923858 0.11002423 0.39033329 7347725
0.019464107 0.10837366 0.38445893 7413266
0.019886913 0.10622983 0.37683475 7743258
0.020496765 0.10521351 0.37321013 7875616
0.021219557 0.10483148 0.37183526 8073254
0.022069789 0.10508391 0.37271017 8073254
0.022870215 0.10508983 0.37271017 8073254
0.023789842 0.10562457 0.37458497 8073254
0.024717653 0.10615953 0.37645978 8204840
0.025543485 0.1062365 0.37670976 8205610
0.02623063 0.10574964 0.37495995 8205610
0.026946453 0.10540391 0.37371007 8074283
0.027619926 0.10491726 0.37196025 8140076
0.028247818 0.10428967 0.36971051 8140074
0.028885828 0.1037327 0.36771071 8205867
0.029696966 0.10381053 0.36796069 8140074
0.030530041 0.10395905 0.36846063 8205867
0.032617126 0.10559689 0.37421003 8140074
0.033556689 0.10602824 0.37570986 8140074
0.034434296 0.10624819 0.37645978 8009258
0.035256796 0.10629192 0.37658477 8009258
0.03605609 0.10626531 0.37645978 8009258
0.036891747 0.10634469 0.37670976 8009258
0.037716158 0.10638894 0.37683475 8009258
0.038694657 0.10685688 0.37845957 7943465
0.039641209 0.10721916 0.37970942 8075051
0.040473502 0.10726403 0.37983441 8009258
0.041306533 0.10730908 0.3799594 8009260
-0.076570816 0.10224265 0.35783678 8008490
-0.075764038 0.10219181 0.35771179 8008490
-0.074774742 0.10189126 0.35671189 7943467
-0.072748698 0.10227592 0.35821173 7943467
-0.071918957 0.10219034 0.35796174 7746088
-0.071065769 0.1020693 0.3575868 7877674
-0.070189953 0.10191281 0.35708684 7943467
-0.069413796 0.1018992 0.35708684 7877674
-0.068613902 0.10185011 0.35696188 7746088
-0.067886107 0.10190818 0.35721183 8074283
-0.067157507 0.10196643 0.35746181 8140076
-0.066404879 0.10198919 0.3575868 8074283
-0.065652005 0.10201212 0.35771179 7943467
-0.064853519 0.10196395 0.3575868 8008488
-0.064100631 0.10198721 0.35771179 8074281
-0.063369602 0.10204631 0.35796174 8205867
-0.062637739 0.10210555 0.35821173 8140074
-0.06203457 0.1023787 0.35921162 8074281
-0.061299428 0.10243826 0.35946161 8074281
-0.060542423 0.10246237 0.3595866 8140074
-0.05970202 0.10234418 0.35921162 8074281
-0.058801979 0.10211939 0.35846171 8139817
-0.058087498 0.10221524 0.35883665 8271403
-0.057371639 0.10231126 0.35921162 8205610
-0.056871001 0.10279898 0.36096144 8140074
-0.056324162 0.10321554 0.36246127 8074281
-0.055866856 0.1038102 0.36458606 8074281
-0.055192877 0.10401346 0.36533597 8074281
-0.05453448 0.10425241 0.36621088 8074281
-0.053780824 0.10431365 0.36646086 8074281
-0.052935921 0.10419716 0.36608589 8074281
-0.05198602 0.10386742 0.364961 8074281
-0.051076241 0.10360907 0.36408609 8074281
-0.050170437 0.10335094 0.36321118 8074281
-0.049319584 0.10319971 0.36271125 8008488
-0.048487779 0.10308422 0.36233628 8008488
-0.047707159 0.10307559 0.36233628 7745059
-0.046894345 0.10299603 0.36208633 7745059
-0.046210133 0.10320108 0.36283624 7744289
-0.045554146 0.1034773 0.36383614 7349018
-0.044909406 0.10378923 0.364961 7217432
-0.044154231 0.10385249 0.36521098 7348502
-0.04336844 0.10384481 0.36521098 7348502
-0.04256824 0.10380177 0.36508599 7216914
-0.041768741 0.10375893 0.364961 7347730
-0.04095589 0.10368073 0.36471105 7347730
-0.040171798 0.10367376 0.36471105 7347473
-0.039387845 0.10366694 0.36471105 7347473
-0.038604029 0.1036603 0.36471105 7347473
-0.037820358 0.10365383 0.36471105 7412496
-0.037062194 0.10371855 0.364961 7478030
-0.036390059 0.10403207 0.36608589 7478030
-0.035725378 0.10438123 0.36733577 7478030
-0.034948464 0.1044109 0.36746076 7543823
-0.034171127 0.10444071 0.36758572 7543823
-0.033359326 0.10436419 0.36733577 7543821
-0.032737106 0.10489145 0.36921054 7543821
-0.03220427 0.10573839 0.37221023 7543821
-0.03153212 0.10615934 0.37371007 7609614
-0.030750861 0.10622542 0.37396005 7543821
-0.030028682 0.10650464 0.37495995 7740430
-0.029351018 0.10696151 0.37658477 7806223
-0.028533852 0.10692155 0.37645978 7740430
-0.027726512 0.10691724 0.37645978 7674635
-0.026820956 0.10652265 0.37508494 7674635
-0.025973385 0.10634121 0.37445998 7871244
-0.025153786 0.10626648 0.37421003 7805451
-0.024351597 0.10626285 0.37421003 7805451
-0.023659589 0.10675626 0.37595984 7871244
-0.022929767 0.10710787 0.37720969 7805451
-0.022179993 0.10738864 0.37820959 7805451
-0.021404801 0.10756309 0.37883452 7739658
-0.020620201 0.10770221 0.37933448 7805451
-0.019820459 0.10777052 0.37958446 7805451
-0.019013438 0.10780351 0.37970942 7805451
-0.018211924 0.10787215 0.3799594 7937037
-0.017403657 0.10790547 0.3800844 7871244
-0.016594892 0.10793895 0.38020939 8002830
-0.01579082 0.10800807 0.38045937 8002832
-0.01498571 0.10807737 0.38070932 8002832
-0.014179564 0.10814684 0.3809593 7937039
-0.013372369 0.10821645 0.38120928 7937039
-0.012568246 0.1083217 0.38158423 8003604
-0.011758685 0.10839166 0.38183421 8003604
-0.010948073 0.10846177 0.38208419 8003604
-0.010136401 0.10853206 0.38233414 8069397
-0.0093206242 0.10856701 0.38245913 7872018
-0.0085015381 0.10856665 0.38245913 7806225
