# .PCD v0.7 - Point Cloud Data file format
VERSION 0.7
FIELDS x y z rgba
SIZE 4 4 4 4
TYPE F F F U
COUNT 1 1 1 1
WIDTH 1097
HEIGHT 1
VIEWPOINT 0 0 0 1 0 0 0
POINTS 1097
DATA ascii
0.059306372 0.043870501 0.29984295 11874662
-0.073396996 0.045011718 0.30296764 7805499
-0.072620034 0.044929728 0.30246767 7936572
-0.071845539 0.044847846 0.30196774 7870007
-0.070955649 0.044691846 0.30096784 7672628
-0.070245549 0.044647317 0.30071786 7672881
-0.069536835 0.044602893 0.30046791 7737904
-0.068829492 0.044558566 0.30021793 7672111
-0.068151876 0.04453288 0.30009294 7672111
-0.067503206 0.044525836 0.30009294 7540523
-0.066854812 0.044518877 0.30009294 7540523
-0.066234253 0.044530533 0.30021793 7803949
-0.065613441 0.044542279 0.30034292 7738154
-0.064992338 0.044554096 0.30046791 7738154
-0.064397722 0.044584524 0.30071786 7737902
-0.06380228 0.04461503 0.30096784 7672881
-0.063206017 0.044645604 0.30121782 7607088
-0.062634893 0.044694774 0.30159277 7869237
-0.062062383 0.044744007 0.30196774 7803444
-0.061513919 0.044811826 0.30246767 7868980
-0.060938414 0.04486119 0.30284265 8065589
-0.060361516 0.044910632 0.30321762 8131382
-0.059783231 0.044960126 0.30359256 8131382
-0.05920358 0.045009699 0.30396754 8065078
-0.058622528 0.045059331 0.30434248 8065078
-0.058040097 0.045109037 0.30471745 7999796
-0.057432737 0.045140307 0.30496743 8065589
-0.056824524 0.045171645 0.30521739 7869233
-0.05393457 0.047180582 0.3190909 6885418
-0.053251378 0.047175415 0.3190909 6688813
-0.052547786 0.047151849 0.31896591 6425641
-0.051844921 0.047128376 0.31884095 5966624
-0.051142771 0.047104985 0.31871596 5704733
-0.050461136 0.047100153 0.31871596 5704733
-0.049760148 0.047076922 0.31859097 5376536
-0.049059868 0.047053773 0.31846598 5245720
-0.048360299 0.047030713 0.31834099 5245720
-0.047661431 0.047007743 0.318216 5443099
-0.04696326 0.04698484 0.31809101 5311513
-0.046265796 0.046962034 0.31796604 5311513
-0.045569029 0.046939306 0.31784105 5311515
-0.044872932 0.046916652 0.31771606 5311515
-0.044160146 0.046875637 0.31746608 5311515
-0.043465696 0.046853151 0.31734109 5443101
-0.042771921 0.046830744 0.3172161 5377567
-0.042095412 0.046826877 0.3172161 5377567
-0.041402724 0.046804633 0.31709114 5245981
-0.040710706 0.04678246 0.31696615 5377567
-0.040035147 0.04677882 0.31696615 5377567
-0.039359696 0.046775252 0.31696615 5377567
-0.038669139 0.046753328 0.31684116 5443360
-0.038009211 0.046768356 0.31696615 5443360
-0.037304707 0.046728134 0.31671616 5509407
-0.036601387 0.046687994 0.31646618 5508894
-0.035913434 0.046666376 0.31634119 5443101
-0.035198282 0.046607964 0.31596625 5246235
-0.03448483 0.046549622 0.31559128 3412758
-0.033799872 0.046528235 0.31546628 3083793
-0.033115555 0.04650693 0.31534132 1316113
-0.032431852 0.046485689 0.31521633 1186065
-0.031761393 0.046482969 0.31521633 1186065
-0.031091012 0.046480305 0.31521633 1317135
-0.030420735 0.046477728 0.31521633 4080441
-0.029750545 0.04647522 0.31521633 1843227
-0.029080439 0.04647278 0.31521633 3488052
-0.02841042 0.046470419 0.31521633 4606533
-0.027740484 0.046468131 0.31521633 2829604
-0.027070627 0.046465904 0.31521633 4211257
-0.026400842 0.046463754 0.31521633 2500639
-0.02573113 0.046461679 0.31521633 2106399
-0.025061494 0.046459679 0.31521633 2830890
-0.024382254 0.046439316 0.31509134 3949371
-0.023713013 0.046437461 0.31509134 1515030
-0.023034697 0.046417251 0.31496635 4013624
-0.02236584 0.04641553 0.31496635 4013624
-0.021697046 0.046413876 0.31496635 1711373
-0.021028306 0.046412297 0.31496635 2699038
-0.02035962 0.046410799 0.31496635 2896417
-0.019690985 0.046409357 0.31496635 2567200
-0.01902994 0.046426408 0.31509134 2238235
-0.018361129 0.046425112 0.31509134 4739402
-0.017699374 0.046442296 0.31521633 3753275
-0.017030379 0.046441142 0.31521633 4411205
-0.016361415 0.046440054 0.31521633 1976864
-0.015692491 0.046439037 0.31521633 1581338
-0.015017637 0.046419669 0.31509134 5331539
-0.014343345 0.046400379 0.31496635 3094316
-0.013669609 0.046381157 0.31484136 1778202
-0.012996427 0.046362001 0.31471637 1646616
-0.012318901 0.046324514 0.31446642 3686199
-0.011651715 0.046323918 0.31446642 3555128
-0.01098018 0.046304971 0.31434143 1449752
-0.01030919 0.046286095 0.31421643 4607565
-0.009642574 0.046285704 0.31421643 1977126
-0.0089759696 0.04628538 0.31421643 4806225
-0.0083093699 0.046285123 0.31421643 2634794
-0.0076397345 0.046266526 0.31409144 1712922
-0.006973403 0.046266403 0.31409144 1449750
-0.006307072 0.046266351 0.31409144 1253143
-0.0056407372 0.04626637 0.31409144 1187350
-0.0049743964 0.046266459 0.31409144 1581338
-0.0043080468 0.046266623 0.31409144 1449752
-0.003641685 0.046266843 0.31409144 1449752
-0.00297531 0.046267133 0.31409144 1383959
-0.0023089182 0.046267487 0.31409144 1383959
-0.0016425079 0.046267912 0.31409144 1383959
-0.00097607652 0.046268415 0.31409144 1515032
-0.00030949825 0.046250563 0.31396645 1515030
0.00035671765 0.046251196 0.31396645 1515030
0.0010229622 0.046251897 0.31396645 1449750
0.0016892379 0.046252664 0.31396645 1581336
0.0023546091 0.046235088 0.31384146 1581336
0.0030194863 0.046217587 0.31371647 1450522
0.0036853389 0.046218559 0.31371647 1582108
0.0043494999 0.046201188 0.31359151 1516315
0.0050131716 0.046183873 0.31346652 1516315
0.0056786244 0.046185054 0.31346652 1516315
0.0063441261 0.046186298 0.31346652 1516315
0.0070068822 0.046169199 0.31334153 1712924
0.0076722219 0.046170585 0.31334153 1778717
0.0083342902 0.046153612 0.31321654 1712924
0.008999479 0.046155132 0.31321654 1843997
0.0096647264 0.046156712 0.31321654 1778204
0.010330038 0.04615837 0.31321654 1778204
0.010991028 0.046141677 0.31309155 1778202
0.011651553 0.046125043 0.31296656 1778202
0.012316537 0.046126895 0.31296656 1778204
0.012976412 0.046110407 0.31284156 1778204
0.01363583 0.046093978 0.3127166 1778204
0.014300508 0.046096042 0.3127166 1974811
0.014965272 0.046098173 0.3127166 2236956
0.015623867 0.046081949 0.31259161 2500128
0.01628853 0.046084218 0.31259161 4595494
0.016953282 0.046086557 0.31259161 7214892
0.017618127 0.046088964 0.31259161 7412271
0.018290371 0.046109874 0.3127166 8264246
0.01895567 0.046112422 0.3127166 8591933
0.019628903 0.046133462 0.31284156 8789312
0.020310886 0.046173017 0.31309155 8986180
0.020985655 0.046194211 0.31321654 8854594
0.021661069 0.046215478 0.31334153 9182019
0.022337122 0.046236817 0.31346652 9444164
0.023004642 0.04623979 0.31346652 9509957
0.023672285 0.046242841 0.31346652 9444164
0.024340039 0.046245955 0.31346652 9575750
0.025007915 0.046249136 0.31346652 9641543
0.025675904 0.046252396 0.31346652 9773129
0.026344031 0.04625573 0.31346652 9706823
0.027001509 0.046240676 0.31334153 9838409
0.027658585 0.046225701 0.31321654 9706825
0.028326565 0.046229243 0.31321654 9969997
0.028971538 0.04619595 0.31296656 9904204
0.029639263 0.046199638 0.31296656 9904204
0.030295016 0.046184938 0.31284156 10100813
0.030950388 0.046170309 0.3127166 10166606
0.031605367 0.046155751 0.31259161 10232399
0.032247052 0.046122789 0.31234163 10232399
0.032901004 0.046108373 0.31221664 10298192
0.033541132 0.04607556 0.31196666 10166606
0.034207761 0.046079729 0.31196666 10166606
0.034860577 0.046065517 0.3118417 10166606
0.035498783 0.046032909 0.31159171 10035020
0.036150593 0.046018835 0.31146672 10232399
0.036787257 0.045986354 0.31121674 10035790
0.037407991 0.045935482 0.3108418 10101583
0.038057908 0.045921616 0.31071681 10101583
0.038707461 0.045907803 0.31059182 10101583
0.03935666 0.045894071 0.31046683 10100813
0.039989393 0.04586193 0.31021684 10166352
0.04055573 0.045755953 0.30946693 10232145
0.040852677 0.045354299 0.30671725 10362961
0.040985793 0.044786282 0.30284265 10691926
0.041325863 0.044458523 0.3005929 10561110
0.041848436 0.044334136 0.29971799 10955870
0.042420611 0.044265263 0.29921803 11021663
0.042972855 0.044177957 0.2985931 11416169
0.043540858 0.044109192 0.29809314 11481962
0.044143975 0.044077478 0.29784319 11613548
0.044765007 0.044064324 0.2977182 11810157
0.045404777 0.044069748 0.2977182 11875950
0.046025421 0.044056736 0.29759321 11875950
0.046645746 0.044043802 0.29746822 11941230
0.047265746 0.044030927 0.29734322 11875437
0.047885425 0.044018131 0.29721823 11941230
0.048525196 0.044023912 0.29721823 11875691
0.049144514 0.044011254 0.29709327 11809898
0.049784467 0.044017192 0.29709327 11875691
0.050403446 0.044004686 0.29696828 12006763
0.051043589 0.044010762 0.29696828 12006250
0.051683981 0.044016924 0.29696828 12006250
0.052324601 0.044023156 0.29696828 11940457
0.052987758 0.044048004 0.29709327 12137836
0.053651709 0.044072926 0.29721823 12072043
0.054316442 0.044097938 0.29734322 12072043
0.054981977 0.044123031 0.29746822 12072043
0.055695053 0.044185296 0.29784319 12269422
0.056386363 0.044229105 0.29809314 12072043
0.057126842 0.044310108 0.2985931 12006250
0.057893932 0.044409756 0.29921803 12006248
0.058639564 0.044490967 0.29971799 11940455
0.05943707 0.044609386 0.30046791 11940455
0.060138132 0.044653688 0.30071786 11743589
-0.073707625 0.045853455 0.30421749 7674683
-0.072957873 0.045789085 0.30384254 7870779
-0.072239779 0.045743659 0.30359256 7739193
-0.07137572 0.045604188 0.30271766 7541812
-0.070574157 0.045502506 0.30209273 7607088
-0.069833435 0.045438588 0.30171776 7541295
-0.069008656 0.045318309 0.30096784 7343916
-0.068244182 0.045235801 0.30046791 7278123
-0.067538381 0.04519102 0.30021793 7212330
-0.066917479 0.045202773 0.30034292 7212330
-0.066296294 0.045214605 0.30046791 7213098
-0.065620236 0.045188908 0.30034292 7279143
-0.064999059 0.045200907 0.30046791 7213350
-0.064377591 0.045212992 0.3005929 7148070
-0.063782342 0.045243945 0.30084285 7213611
-0.063212514 0.045293771 0.30121782 7147818
-0.062615328 0.045324866 0.30146781 7278893
-0.062068712 0.045393616 0.30196774 7278893
-0.061520185 0.045462422 0.30246767 7672111
-0.060969751 0.045531303 0.30296764 7737904
-0.060392495 0.045581445 0.30334258 7737904
-0.059813883 0.045631684 0.30371755 7672111
-0.059233882 0.045681976 0.30409253 7672111
-0.058652494 0.045732338 0.30446747 7737647
-0.058045905 0.045763992 0.30471745 7672111
-0.057438474 0.045795724 0.30496743 7672111
-0.056830183 0.045827527 0.30521739 7672111
-0.056198016 0.045840632 0.30534238 7738674
-0.054108843 0.048015673 0.3200908 6885418
-0.053402562 0.047991678 0.31996581 6295078
-0.052676432 0.047949016 0.31971586 6097699
-0.051910896 0.047868967 0.31921589 5572893
-0.051227916 0.047863971 0.31921589 5376538
-0.05052533 0.04784032 0.3190909 5376538
-0.049823467 0.047816761 0.31896591 5114647
-0.049122311 0.047793284 0.31884095 4983831
-0.048421852 0.047769886 0.31871596 4918038
-0.047703382 0.047727838 0.31846598 4918551
-0.046986144 0.047685888 0.318216 4918551
-0.046306513 0.047681469 0.318216 4852758
-0.045591205 0.047639702 0.31796604 4918551
-0.044894774 0.047616724 0.31784105 4984346
-0.04419902 0.047593832 0.31771606 4918553
-0.043521076 0.047589738 0.31771606 4852506
-0.042826429 0.047567017 0.31759107 4853020
-0.042132445 0.04754436 0.31746608 4918813
-0.041439138 0.047521792 0.31734109 4787227
-0.040746517 0.047499314 0.3172161 4853020
-0.04007034 0.047495626 0.3172161 4853020
-0.039378773 0.047473293 0.31709114 4984092
-0.038703129 0.047469757 0.31709114 4984092
-0.038012609 0.047447585 0.31696615 4984092
-0.037337471 0.047444202 0.31696615 4984346
-0.036633536 0.047403481 0.31671616 4984346
-0.035930794 0.047362845 0.31646618 4984346
-0.035229217 0.047322284 0.31621623 4984346
-0.034528822 0.047281813 0.31596625 3084822
-0.0338162 0.047222707 0.31559128 2821650
-0.033131529 0.04720109 0.31546628 1316113
-0.032460358 0.047198243 0.31546628 1186065
-0.031789284 0.047195483 0.31546628 1054479
-0.031118307 0.047192786 0.31546628 1448467
-0.03044742 0.047190163 0.31546628 1580053
-0.029776627 0.047187626 0.31546628 1843227
-0.029105918 0.047185156 0.31546628 1974813
-0.028435292 0.047182757 0.31546628 1974813
-0.027764751 0.047180429 0.31546628 2171420
-0.027094288 0.047178179 0.31546628 2895397
-0.026423901 0.047176 0.31546628 2961190
-0.025753593 0.047173895 0.31546628 2304800
-0.025073413 0.047153175 0.31534132 2106399
-0.024393834 0.047132526 0.31521633 2961708
-0.023724254 0.047130637 0.31521633 3291441
-0.023054739 0.04712883 0.31521633 3356464
-0.022385292 0.04712709 0.31521633 1843225
-0.02170728 0.047106728 0.31509134 1711121
-0.021038206 0.04710513 0.31509134 1711119
-0.020377263 0.047122292 0.31521633 2105877
-0.019708019 0.047120821 0.31521633 1974293
-0.019046381 0.047138128 0.31534132 2040086
-0.018384248 0.047155488 0.31546628 4409154
-0.017714612 0.047154251 0.31546628 1449750
-0.017051766 0.047171757 0.31559128 3094575
-0.01638194 0.047170646 0.31559128 1647899
-0.015712146 0.047169615 0.31559128 1909790
-0.015036429 0.047149979 0.31546628 4936268
-0.014366963 0.047149085 0.31546628 1449750
-0.013686669 0.047110904 0.31521633 1646616
-0.01300746 0.047072798 0.31496635 1449237
-0.012334228 0.047053441 0.31484136 3949625
-0.011661545 0.047034148 0.31471637 3225648
-0.010989411 0.047014933 0.31459138 3094062
-0.010317821 0.046995789 0.31446642 4607563
-0.0096506076 0.04699539 0.31446642 2108452
-0.0089834016 0.046995059 0.31446642 4740172
-0.0083162021 0.046994794 0.31446642 3095345
-0.007645967 0.046975929 0.31434143 1383959
-0.006979038 0.046975814 0.31434143 1318166
-0.0063121081 0.046975765 0.31434143 1187350
-0.0056451745 0.046975784 0.31434143 1187350
-0.004978233 0.046975862 0.31434143 1318934
-0.0043112845 0.046976026 0.31434143 1449750
-0.0036443234 0.046976253 0.31434143 1449750
-0.0029773496 0.046976555 0.31434143 1383959
-0.0023103585 0.046976916 0.31434143 1383959
-0.0016426956 0.046958677 0.31421643 1383959
-0.00097593048 0.046959184 0.31421643 1515032
-0.00030914144 0.04695975 0.31421643 1449239
0.00035767377 0.046960391 0.31421643 1515032
0.0010245176 0.04696111 0.31421643 1515032
0.0016907195 0.046943206 0.31409144 1449752
0.0023573628 0.046944056 0.31409144 1449752
0.0030228386 0.046926294 0.31396645 1581338
0.003687822 0.046908602 0.31384146 1712924
0.0043523158 0.046890974 0.31371647 1647131
0.0050183213 0.046892088 0.31371647 1449752
0.0056821089 0.046874609 0.31359151 1581338
0.0063479431 0.046875868 0.31359151 1581338
0.0070110336 0.046858523 0.31346652 1647131
0.0076767071 0.046859916 0.31346652 1647131
0.0083424374 0.046861388 0.31346652 1712411
0.009004632 0.04684424 0.31334153 1778204
0.0096663572 0.046827167 0.31321654 1646618
0.010331739 0.046828851 0.31321654 1646618
0.010997185 0.046830591 0.31321654 1646618
0.011658044 0.046813715 0.31309155 1515032
0.012318444 0.046796918 0.31296656 1646618
0.012983572 0.046798863 0.31296656 1515032
0.013643324 0.046782199 0.31284156 1515032
0.014302623 0.046765599 0.3127166 1646618
0.014967453 0.046767771 0.3127166 2039834
0.015626116 0.046751305 0.31259161 2171420
0.016290849 0.0467536 0.31259161 4201250
0.016955672 0.046755973 0.31259161 6689834
0.017620584 0.046758413 0.31259161 6689834
0.018285589 0.046760924 0.31259161 7410477
0.018958269 0.046782207 0.3127166 8000817
0.019631576 0.046803553 0.31284156 8000817
0.020313628 0.046843681 0.31309155 8066359
0.02098847 0.04686518 0.31321654 8197945
0.021672595 0.046905454 0.31346652 8196662
0.022348985 0.046927106 0.31359151 8393271
0.023026021 0.046948824 0.31371647 8524857
0.023694264 0.046951909 0.31371647 8721466
0.024362622 0.046955068 0.31371647 8918845
0.025031099 0.046958301 0.31371647 8918845
0.025689462 0.046942897 0.31359151 8853052
0.026347417 0.046927564 0.31346652 8984125
0.027015738 0.04693101 0.31346652 9247297
0.02766211 0.046897095 0.31321654 8984125
0.028318856 0.046881966 0.31309155 9378371
0.028975211 0.046866916 0.31296656 9378371
0.029643001 0.046870645 0.31296656 9378371
0.030286722 0.046837002 0.3127166 9575750
0.03095427 0.046840888 0.3127166 9509957
0.031609327 0.046826113 0.31259161 9641543
0.03226399 0.046811406 0.31246662 9838922
0.032905098 0.046778031 0.31221664 9838922
0.033572178 0.046782199 0.31221664 9838922
0.034211997 0.046748973 0.31196666 9904204
0.034878861 0.04675328 0.31196666 9904204
0.035531648 0.04673893 0.3118417 9904204
0.036155045 0.046687178 0.31146672 9904717
0.036791779 0.046654224 0.31121674 9904717
0.03741258 0.046602607 0.3108418 10036303
0.038062572 0.046588529 0.31071681 10036303
0.038727779 0.046593264 0.31071681 10036303
0.039361477 0.046560589 0.31046683 9969997
0.039994285 0.046527974 0.31021684 10166352
0.04056067 0.046420433 0.30946693 10166352
0.040641215 0.045769203 0.30509239 10297170
0.040804692 0.045230415 0.30146781 10691928
0.041227773 0.044991642 0.29984295 10495319
0.041801158 0.044921692 0.29934302 10955870
0.042425767 0.044908095 0.29921803 10955870
0.042978063 0.044819504 0.2985931 11416169
0.04354614 0.044749733 0.29809314 11481962
0.044130787 0.04469879 0.2977182 11547755
0.044751633 0.044685446 0.29759321 11810157
0.04537214 0.044672165 0.29746822 11810157
0.046011653 0.044677731 0.29746822 11875950
0.046612173 0.044645816 0.29721823 11875437
0.047251578 0.044651531 0.29721823 11875437
0.047871068 0.044638541 0.29709327 11941230
0.048490241 0.044625618 0.29696828 11941484
0.04912978 0.044631556 0.29696828 11875691
0.049748588 0.044618774 0.29684329 11809898
0.050388306 0.044624865 0.29684329 11940970
0.051006783 0.04461224 0.2967183 12006250
0.051646702 0.044618469 0.2967183 12006250
0.052308898 0.044643588 0.29684329 12006250
0.052971866 0.044668786 0.29696828 12006250
0.053613055 0.044675257 0.29696828 12072043
0.05430017 0.04471942 0.29721823 12072043
0.054965518 0.044744875 0.29734322 12006250
0.055655025 0.044789214 0.29759321 12072043
0.056369532 0.044852469 0.29796818 12072041
0.057109833 0.04493463 0.29846811 12006248
0.05792512 0.04507336 0.29934302 11940455
0.058720026 0.045193389 0.30009294 12006248
0.059468992 0.045275878 0.3005929 11940455
0.060220398 0.045358472 0.30109283 11612003
-0.074079037 0.046739042 0.30571735 7674683
-0.073115803 0.046539981 0.30446747 7608120
-0.072336778 0.046455689 0.30396754 7410741
-0.071589686 0.046390615 0.30359256 7213360
-0.070786111 0.046287466 0.30296764 7147567
-0.070072338 0.046241708 0.30271766 7081774
-0.069245294 0.046119697 0.30196774 6885418
-0.068421774 0.045997817 0.30121782 7016234
-0.067658007 0.045914214 0.30071786 6819625
-0.066952392 0.045868892 0.30046791 6819625
-0.066275708 0.045842756 0.30034292 6951209
-0.065627128 0.045835767 0.30034292 6885668
-0.065032899 0.045867018 0.3005929 6951461
-0.064411089 0.045879271 0.30071786 6951461
-0.063788988 0.045891609 0.30084285 6819880
-0.063166603 0.045904025 0.30096784 6819880
-0.062621832 0.045973707 0.30146781 6951209
-0.062100824 0.046062499 0.30209273 6885416
-0.061577372 0.046151355 0.30271766 7278891
-0.06102632 0.046221215 0.30321762 7278891
-0.060448468 0.046272095 0.30359256 7147305
-0.059869234 0.046323039 0.30396754 7213098
-0.059264269 0.046355002 0.30421749 7213098
-0.058682535 0.04640609 0.30459246 7343914
-0.058075607 0.04643821 0.30484244 7409707
-0.057491362 0.046489436 0.30521739 7343914
-0.056835901 0.046483625 0.30521739 7278891
-0.056203671 0.046496931 0.30534238 7542063
-0.053449538 0.048716847 0.32021579 6033187
-0.052722771 0.048673574 0.31996581 5770015
-0.051997263 0.048630398 0.31971586 5310491
-0.051273014 0.048587319 0.31946588 5114647
-0.050550021 0.048544325 0.31921589 5048854
-0.049867328 0.048539434 0.31921589 4786965
-0.049146291 0.048496615 0.31896591 4786965
-0.048445493 0.048472892 0.31884095 4721172
-0.047745395 0.048449252 0.31871596 4590100
-0.047027536 0.048406694 0.31846598 4459284
-0.0463291 0.048383221 0.31834099 4525077
-0.045631364 0.048359841 0.318216 4525079
-0.044934317 0.048336539 0.31809101 4459799
-0.044220556 0.048294324 0.31784105 4459799
-0.043525159 0.048271205 0.31771606 4525338
-0.042847276 0.048267137 0.31771606 4656411
-0.042152952 0.048244163 0.31759107 4656411
-0.041459303 0.048221283 0.31746608 4590618
-0.040782385 0.048217457 0.31746608 4590618
-0.040089808 0.048194733 0.31734109 4656411
-0.039397892 0.048172086 0.3172161 4656411
-0.038721904 0.048168506 0.3172161 4656411
-0.038046025 0.04816499 0.3172161 4656411
-0.037370283 0.048161566 0.3172161 4590618
-0.036665749 0.048120271 0.31696615 4656411
-0.035990771 0.048116993 0.31696615 4590618
-0.035260197 0.048037905 0.31646618 4328983
-0.034559194 0.047996849 0.31621623 2887956
-0.033886142 0.047993813 0.31621623 2558991
-0.033200067 0.047971882 0.31609124 1511950
-0.032514632 0.047950029 0.31596625 1511950
-0.031829819 0.047928255 0.31584126 1250318
-0.031157969 0.047925532 0.31584126 1381647
-0.030486213 0.047922872 0.31584126 1579026
-0.029814545 0.047920298 0.31584126 1381649
-0.02914297 0.047917794 0.31584126 1513490
-0.028471472 0.047915354 0.31584126 1513490
-0.027800063 0.047912996 0.31584126 1448467
-0.027128724 0.047910709 0.31584126 1317651
-0.026457472 0.0479085 0.31584126 1317651
-0.025776088 0.047887407 0.31571627 1317651
-0.025105238 0.047885347 0.31571627 1514262
-0.024424789 0.0478644 0.31559128 1580055
-0.023744937 0.047843531 0.31546628 1580055
-0.023074815 0.047841687 0.31546628 1383193
-0.02240476 0.047839925 0.31546628 1383193
-0.021734759 0.047838233 0.31546628 1514260
-0.021064818 0.047836613 0.31546628 1645330
-0.020394925 0.047835059 0.31546628 1579537
-0.019725081 0.047833584 0.31546628 1513744
-0.019062836 0.04785113 0.31559128 1579537
-0.018400103 0.04786874 0.31571627 1908248
-0.017736886 0.047886439 0.31584126 1514260
-0.017073173 0.04790419 0.31596625 1645846
-0.016402479 0.047903072 0.31596625 1645846
-0.015731821 0.047902033 0.31596625 1645848
-0.015061193 0.047901053 0.31596625 1514262
-0.014384902 0.047881201 0.31584126 1645846
-0.013703738 0.047842462 0.31559128 1974811
-0.013028826 0.047822762 0.31546628 1580053
-0.012349566 0.047784187 0.31521633 1975835
-0.011671387 0.047745675 0.31496635 1778456
-0.010998652 0.047726184 0.31484136 1975835
-0.010330561 0.047725711 0.31484136 2173475
-0.0096586449 0.047706354 0.31471637 2304546
-0.0089908382 0.047706023 0.31471637 3028269
-0.0083230399 0.047705766 0.31471637 2700587
-0.0076552429 0.047705568 0.31471637 1647648
-0.0069874497 0.047705449 0.31471637 1121304
-0.0063196532 0.047705397 0.31471637 1252120
-0.0056518535 0.047705416 0.31471637 1383706
-0.0049820673 0.047686558 0.31459138 1909788
-0.0043145181 0.047686718 0.31459138 1843995
-0.0036469579 0.047686957 0.31459138 1778202
-0.0029793831 0.047687259 0.31459138 1712411
-0.0023117925 0.047687635 0.31459138 1581338
-0.0016441828 0.047688071 0.31459138 1647131
-0.00097655202 0.047688581 0.31459138 1778717
-0.00030877494 0.047670223 0.31446642 1712924
0.00035864039 0.047670875 0.31446642 1647131
0.0010260844 0.04767159 0.31446642 1515032
0.0016928866 0.047653437 0.31434143 1647131
0.0023601297 0.047654301 0.31434143 1844510
0.0030262053 0.047636282 0.31421643 1581338
0.0036917892 0.047618337 0.31409144 1778717
0.004356883 0.047600456 0.31396645 1647131
0.0050234888 0.047601592 0.31396645 1646618
0.0056878752 0.047583852 0.31384146 1449752
0.0063517801 0.047566187 0.31371647 1449752
0.0070180022 0.047567539 0.31371647 1581338
0.0076812147 0.047550015 0.31359151 1449752
0.0083472794 0.047551502 0.31359151 1646618
0.0090098083 0.047534104 0.31346652 1712411
0.0096757272 0.04753574 0.31346652 1646618
0.01034171 0.047537442 0.31346652 1515032
0.011003369 0.047520269 0.31334153 1449239
0.011664561 0.047503144 0.31321654 1449239
0.012330217 0.047505055 0.31321654 1449239
0.012990762 0.047488086 0.31309155 1448986
0.013650846 0.047471169 0.31296656 1448986
0.014310481 0.047454339 0.31284156 1515032
0.014969665 0.047437567 0.3127166 1645848
0.015634649 0.047439836 0.3127166 1843227
0.016293203 0.04742321 0.31259161 3938850
0.016958095 0.047425605 0.31259161 6034214
0.017623078 0.047428083 0.31259161 6100007
0.018288156 0.047430631 0.31259161 6819880
0.018960902 0.047452204 0.3127166 7278891
0.01964213 0.047492828 0.31296656 7278891
0.020324521 0.04753352 0.31321654 7409707
0.021016456 0.047593273 0.31359151 7607086
0.021692809 0.047615152 0.31371647 7540272
0.022369802 0.047637105 0.31384146 7671858
0.023047445 0.04765914 0.31396645 7737651
0.023716288 0.047662269 0.31396645 7999796
0.024385251 0.047665477 0.31396645 7933490
0.025044363 0.047649778 0.31384146 7540272
0.025703065 0.047634162 0.31371647 7606061
0.026361359 0.047618605 0.31359151 7737645
0.027019244 0.047603115 0.31346652 7737645
0.02766569 0.047568716 0.31321654 7737645
0.028322505 0.047553364 0.31309155 7934254
0.028978925 0.047538094 0.31296656 7934254
0.029634951 0.047522884 0.31284156 7802155
0.030290587 0.047507744 0.3127166 8131122
0.030958207 0.047511678 0.3127166 8065329
0.031613331 0.047496684 0.31259161 8065076
0.032268066 0.047481768 0.31246662 8262455
0.032935604 0.04748591 0.31246662 8065076
0.033576403 0.047452137 0.31221664 8261687
0.034257423 0.047475427 0.31234163 8393273
0.034911186 0.047460802 0.31221664 8655677
0.035578821 0.047465246 0.31221664 8918336
0.036188588 0.047393762 0.31171671 8984129
0.036811143 0.047341317 0.31134173 9247301
0.037432287 0.047288965 0.31096679 9378887
0.038067307 0.047255673 0.31071681 9707852
0.038732585 0.047260467 0.31071681 9642059
0.039382197 0.047246333 0.31059182 9510219
0.039999235 0.047194239 0.31021684 9969743
0.040582072 0.047104172 0.30959192 9903950
0.040662885 0.046443611 0.30521739 10166354
0.04077588 0.045840032 0.30121782 10297940
0.041198481 0.04559784 0.299593 10232917
0.04180631 0.045564935 0.29934302 10627677
0.042413253 0.0455321 0.29909304 10825056
0.042983349 0.045461271 0.2985931 11087974
0.043533225 0.045371473 0.29796818 11481962
0.044117674 0.045319788 0.29759321 11547755
0.044738322 0.045306239 0.29746822 11810411
0.045358639 0.045292769 0.29734322 11875691
0.045978624 0.045279361 0.29721823 11875691
0.04661788 0.045285068 0.29721823 11875177
0.047217634 0.045252778 0.29696828 11940970
0.047856797 0.04525863 0.29696828 11940970
0.048475765 0.045245513 0.29684329 12072556
0.049115103 0.045251526 0.29684329 12006763
0.049733728 0.045238558 0.2967183 11940970
0.050373249 0.045244716 0.2967183 12006763
0.050991528 0.045231905 0.29659331 11809384
0.051631261 0.045238219 0.29659331 11809384
0.052271236 0.045244623 0.29659331 11940457
0.052933749 0.045270164 0.2967183 11940203
0.05357448 0.04527672 0.2967183 11940203
0.054261144 0.045321513 0.29696828 12137836
0.054926034 0.045347318 0.29709327 12006250
0.05563847 0.045411363 0.29746822 12006250
0.056329139 0.045456424 0.2977182 12006248
0.057092916 0.045558836 0.29834312 12006248
0.057956412 0.045737725 0.29946801 11940455
0.058800604 0.04589764 0.30046791 12006248
0.059550475 0.045981321 0.30096784 11808869
0.060227782 0.046007808 0.30109283 11480417
-0.074208297 0.04747631 0.30621728 7674683
-0.073333904 0.047332555 0.30534238 7542327
-0.072493389 0.047208324 0.30459246 7410741
-0.071626939 0.047064848 0.30371755 7213360
-0.070939809 0.047037706 0.30359256 6950958
-0.070224583 0.046991292 0.30334258 6885165
-0.069424741 0.046886913 0.30271766 6819882
-0.068599485 0.046763293 0.30196774 6688296
-0.067777753 0.046639796 0.30121782 6688296
-0.06701526 0.046555139 0.30071786 6688296
-0.066365518 0.046547964 0.30071786 6623271
-0.065716043 0.046540886 0.30071786 6230050
-0.065066852 0.04653389 0.30071786 6361636
-0.064417906 0.046526991 0.30071786 6361636
-0.063795723 0.0465395 0.30084285 6229796
-0.063225724 0.046590764 0.30121782 6164003
-0.062680334 0.046661429 0.30171776 6361382
-0.062133022 0.046732157 0.30221772 6361382
-0.061634656 0.046841595 0.30296764 6427175
-0.06113331 0.046951089 0.30371755 6623271
-0.060554311 0.047002684 0.30409253 6623271
-0.059924673 0.047015708 0.30421749 6819623
-0.05931909 0.047048125 0.30446747 6885416
-0.058712672 0.047080629 0.30471745 6819623
-0.058129199 0.047132503 0.30509239 6885416
-0.057544343 0.047184456 0.30546737 6951209
-0.057051204 0.047313694 0.30634227 7147818
-0.056439482 0.047346473 0.30659226 7410990
-0.052810386 0.049438015 0.32046577 5573147
-0.052043065 0.049355663 0.31996581 5179929
-0.05129813 0.049292695 0.31959087 4918038
-0.050594579 0.049268376 0.31946588 4852245
-0.04989174 0.049244143 0.31934088 4590100
-0.049189612 0.049219996 0.31921589 4327700
-0.048488189 0.049195938 0.3190909 4261907
-0.047768746 0.049152695 0.31884095 4262420
-0.047068998 0.049128816 0.31871596 4131604
-0.046351753 0.049085747 0.31846598 4131604
-0.04565366 0.049062029 0.31834099 4066324
-0.044956271 0.049038403 0.318216 4197656
-0.044259552 0.049014863 0.31809101 4197656
-0.043546412 0.048972156 0.31784105 4197656
-0.042851329 0.048948776 0.31771606 4328729
-0.042173512 0.048944749 0.31771606 4262936
-0.041495837 0.048940785 0.31771606 4262936
-0.040802252 0.048917662 0.31759107 4328983
-0.040109321 0.04889461 0.31746608 4328983
-0.039432593 0.048890904 0.31746608 4525592
-0.038755987 0.048887268 0.31746608 4525592
-0.038079504 0.048883706 0.31746608 4459799
-0.037388429 0.048860993 0.31734109 4459799
-0.036697995 0.048838351 0.3172161 4459799
-0.036022406 0.048835028 0.3172161 4459799
-0.035346933 0.048831787 0.3172161 4197910
-0.034698896 0.048867106 0.31746608 4000531
-0.034023106 0.048864014 0.31746608 2886927
-0.033347428 0.048861004 0.31746608 2232845
-0.032607533 0.048761889 0.31684116 2232845
-0.031908188 0.048720572 0.31659117 1774091
-0.031222334 0.048698563 0.31646618 1577995
-0.030537108 0.048676636 0.31634119 1709581
-0.0298643 0.04867401 0.31634119 1512204
-0.029191585 0.048671473 0.31634119 1577997
-0.028518952 0.048669003 0.31634119 1577997
-0.027846405 0.048666615 0.31634119 1513487
-0.027173935 0.048664305 0.31634119 1316365
-0.026501542 0.048662055 0.31634119 1447951
-0.025819018 0.048640665 0.31621623 1447951
-0.025147038 0.048638575 0.31621623 1513490
-0.024465453 0.048617337 0.31609124 1579283
-0.023784459 0.048596174 0.31596625 1448467
-0.023113204 0.048594303 0.31596625 1382676
-0.022433134 0.048573282 0.31584126 1382676
-0.021762267 0.048571568 0.31584126 1513490
-0.021091454 0.048569921 0.31584126 1513744
-0.020420693 0.048568349 0.31584126 1513744
-0.019757794 0.048586074 0.31596625 1513744
-0.019094417 0.048603863 0.31609124 1513744
-0.01843055 0.048621729 0.31621623 1579283
-0.017766196 0.048639666 0.31634119 1513490
-0.017101353 0.048657682 0.31646618 1513490
-0.016429523 0.048656546 0.31646618 1514260
-0.015757732 0.04865548 0.31646618 1579283
-0.015085971 0.048654489 0.31646618 1579283
-0.014402855 0.048615146 0.31621623 1514260
-0.013720823 0.048575871 0.31596625 1514260
-0.013045041 0.048555885 0.31584126 1382674
-0.012364915 0.048516762 0.31559128 1383444
-0.011690496 0.048496921 0.31546628 1449491
-0.011012264 0.048457939 0.31521633 1646870
-0.010343306 0.048457462 0.31521633 1383444
-0.0096705239 0.048437845 0.31509134 1777432
-0.0090018502 0.048437506 0.31509134 1909018
-0.0083331848 0.048437238 0.31509134 1974811
-0.0076645217 0.04843704 0.31509134 1514260
-0.0069930847 0.048417706 0.31496635 1120787
-0.0063246875 0.048417654 0.31496635 1055764
-0.0056562866 0.048417676 0.31496635 1187350
-0.0049878797 0.048417766 0.31496635 1647131
-0.0043194634 0.04841793 0.31496635 1646616
-0.0036510364 0.048418164 0.31496635 1646616
-0.0029825952 0.048418466 0.31496635 1646618
-0.0023132197 0.048399635 0.31484136 1712411
-0.0016450087 0.048400082 0.31484136 1712411
-0.00097677694 0.0484006 0.31484136 1844510
-0.00030839877 0.048381977 0.31471637 1778717
0.00035961778 0.04838264 0.31471637 1712924
0.0010276631 0.04838337 0.31471637 1383444
0.0016950659 0.048364956 0.31459138 1910301
0.0023629104 0.048365831 0.31459138 2107680
0.0030295874 0.048347563 0.31446642 2633511
0.003695772 0.048329361 0.31434143 2304546
0.004361467 0.048311237 0.31421643 1712409
0.0050286739 0.048312392 0.31421643 1646616
0.005693662 0.048294403 0.31409144 1843995
0.0063581676 0.04827648 0.31396645 1646616
0.0070249895 0.048277851 0.31396645 1778202
0.0076918663 0.048279297 0.31396645 1778202
0.0083554704 0.048261587 0.31384146 1909790
0.0090186018 0.048243951 0.31371647 1712411
0.0096851224 0.048245605 0.31371647 1909790
0.010351705 0.04824733 0.31371647 1383446
0.011013966 0.048229907 0.31359151 1317653
0.011675763 0.048212551 0.31346652 1251860
0.012337098 0.048195269 0.31334153 1317400
0.012997977 0.048178047 0.31321654 1251607
0.013652946 0.048141673 0.31296656 1251607
0.014318369 0.04814383 0.31296656 1317400
0.014977888 0.04812682 0.31284156 1448216
0.015636962 0.0481099 0.3127166 1645595
0.016302101 0.048112258 0.3127166 3413789
0.016960548 0.048095457 0.31259161 5312546
0.017625602 0.048097964 0.31259161 5444132
0.018290751 0.048100546 0.31259161 6098982
0.018963574 0.048122428 0.3127166 6425892
0.019644873 0.048163615 0.31296656 6623271
0.020351676 0.048262607 0.31359151 6885416
0.021044487 0.048323199 0.31396645 6951209
0.021730356 0.048364624 0.31421643 6819625
0.022399576 0.048367649 0.31421643 6885418
0.023068914 0.04837076 0.31421643 6951211
0.023738367 0.048373941 0.31421643 7016234
0.024407934 0.048377186 0.31421643 7081514
0.025067652 0.048361268 0.31409144 7147307
0.025716713 0.048326176 0.31384146 7212330
0.026375344 0.048310403 0.31371647 7408937
0.027022796 0.048275445 0.31346652 7474730
0.027680354 0.04825981 0.31334153 7278121
0.028337508 0.048244238 0.31321654 7278121
0.028982693 0.048209496 0.31296656 7278121
0.029638795 0.048194069 0.31284156 7277351
0.030294502 0.048178721 0.3127166 7606059
0.030962195 0.048182704 0.3127166 7606059
0.031630032 0.048186753 0.3127166 7540268
0.032272201 0.048152357 0.31246662 7737647
0.032939818 0.048156567 0.31246662 7540268
0.03360758 0.048160844 0.31246662 7605808
0.034302916 0.048203725 0.3127166 7737394
0.034971535 0.048208162 0.3127166 7605808
0.035640314 0.048212666 0.3127166 8065076
0.03625121 0.048140164 0.31221664 8262455
0.036860134 0.048067726 0.31171671 8656445
0.037467096 0.047995344 0.31121674 8918847
0.038087413 0.047942322 0.3108418 9379400
0.038753036 0.04794718 0.3108418 9445193
0.039418839 0.047952123 0.3108418 9510473
0.040036485 0.047899295 0.31046683 9838670
0.040636312 0.04782724 0.30996689 9772877
0.040817853 0.047273077 0.30634227 9969745
0.04078098 0.046487391 0.30121782 10166354
0.04118643 0.046222474 0.29946801 10561112
0.041811526 0.046208404 0.29934302 10626907
0.042383093 0.046136502 0.29884309 10824286
0.042970706 0.046083957 0.29846811 11153251
0.043520384 0.045992885 0.29784319 11546985
0.044104632 0.045940462 0.29746822 11612778
0.044725094 0.04592672 0.29734322 11744618
0.045345202 0.045913041 0.29721823 11809898
0.045965005 0.045899447 0.29709327 11809898
0.046584465 0.045885924 0.29696828 11809384
0.047203615 0.045872461 0.29684329 11940970
0.047822438 0.04585908 0.2967183 11940970
0.048440956 0.045845777 0.29659331 12072556
0.049079828 0.045851856 0.29659331 11875177
0.049697988 0.045838702 0.29646832 11940970
0.050337061 0.045844939 0.29646832 12006763
0.050954867 0.045831919 0.29634333 11940968
0.051594142 0.045838322 0.29634333 11875175
0.052255679 0.045864135 0.29646832 11875177
0.05289571 0.045870695 0.29646832 11940203
0.05353599 0.045877337 0.29646832 11940203
0.054222196 0.045922752 0.2967183 12072043
0.05488662 0.0459489 0.29684329 11940968
0.055598613 0.046013843 0.29721823 11940968
0.056312479 0.046078883 0.29759321 11940968
0.057076078 0.04618274 0.29821813 11940455
0.057915222 0.046344776 0.29921803 11940455
0.058758982 0.046506945 0.30021793 11940455
0.059483673 0.046572432 0.3005929 11611490
0.060235277 0.04665738 0.30109283 11480417
-0.073372044 0.048011281 0.30546737 7476534
-0.072531126 0.047885321 0.30471745 7344948
-0.071723253 0.047779124 0.30409253 7016751
-0.071064427 0.047771234 0.30409253 6885422
-0.070319094 0.047704544 0.30371755 6819629
-0.069604315 0.047657583 0.30346757 6557227
-0.068777338 0.047532234 0.30271766 6425894
-0.067925744 0.047387384 0.30184275 6425894
-0.067133948 0.047281921 0.30121782 6557480
-0.066427857 0.047235407 0.30096784 6426662
-0.065777764 0.047228232 0.30096784 6098980
-0.065154992 0.047240756 0.30109283 6098980
-0.064531922 0.047253359 0.30121782 6230566
-0.063908577 0.04726604 0.30134282 6098980
-0.063337423 0.047318019 0.30171776 6033187
-0.062790863 0.047389653 0.30221772 6098980
-0.062293809 0.047500562 0.30296764 6098980
-0.061768327 0.047591913 0.30359256 6098980
-0.061190087 0.047644161 0.30396754 6229796
-0.060610451 0.047696456 0.30434248 6361382
-0.059980202 0.04770967 0.30446747 6557478
-0.059374008 0.047742546 0.30471745 6623271
-0.058766965 0.047775503 0.30496743 6754087
-0.058206696 0.047847681 0.30546737 6754087
-0.057738703 0.047998227 0.30646726 6819880
-0.057499416 0.048344549 0.30871701 6885673
-0.056882504 0.048377745 0.30896699 6951466
-0.051323321 0.049998846 0.31971586 4131602
-0.050619412 0.049974184 0.31959087 4065809
-0.049916219 0.049949624 0.31946588 3672848
-0.049213737 0.049925141 0.31934088 3345168
-0.048511963 0.049900744 0.31921589 3476754
-0.047792159 0.049856897 0.31896591 3280402
-0.047092065 0.049832694 0.31884095 3280148
-0.04637447 0.04978903 0.31859097 3214355
-0.04567603 0.049764995 0.31846598 3083539
-0.044960622 0.049721505 0.318216 3084052
-0.044263825 0.049697645 0.31809101 3018259
-0.043567713 0.049673855 0.31796604 3149332
-0.042872295 0.04965017 0.31784105 3280148
-0.042177528 0.049626552 0.31771606 3214355
-0.041499779 0.049622547 0.31771606 3214355
-0.040822171 0.04961862 0.31771606 4066838
-0.040144689 0.049614776 0.31771606 4066838
-0.039451819 0.049591497 0.31759107 4197908
-0.038774867 0.049587809 0.31759107 4197908
-0.038098037 0.049584202 0.31759107 4197908
-0.037421338 0.049580686 0.31759107 4197910
-0.036744758 0.049577236 0.31759107 4197910
-0.034988951 0.049957525 0.3200908 3672850
-0.034267306 0.049895845 0.31971586 3280400
-0.0335605 0.049853768 0.31946588 2954253
-0.032764811 0.049675245 0.31834099 2954253
-0.0320118 0.049555317 0.31759107 2757896
-0.031311415 0.049513504 0.31734109 2692617
-0.030624252 0.049491271 0.3172161 2692617
-0.029937705 0.04946911 0.31709114 2627083
-0.029263323 0.049466535 0.31709114 2298890
-0.028577747 0.049444523 0.31696615 2364683
-0.027903792 0.049442098 0.31696615 2365196
-0.027229914 0.049439743 0.31696615 1971722
-0.026556119 0.049437471 0.31696615 1905929
-0.02587219 0.049415782 0.31684116 1906188
-0.025188863 0.049394164 0.31671616 1906188
-0.024515813 0.049392115 0.31671616 1971981
-0.02383342 0.049370658 0.31659117 1775372
-0.023151621 0.049349274 0.31646618 1710094
-0.022470413 0.049327958 0.31634119 1644301
-0.021798408 0.049326222 0.31634119 1710094
-0.021126458 0.04932455 0.31634119 1644301
-0.020454561 0.049322955 0.31634119 1513487
-0.01979053 0.049340926 0.31646618 1513487
-0.019126017 0.049358964 0.31659117 1513487
-0.018461017 0.049377084 0.31671616 1513487
-0.017788507 0.049375776 0.31671616 1316365
-0.017122796 0.049394045 0.31684116 1447951
-0.016456587 0.049412377 0.31696615 1513490
-0.015777435 0.049391817 0.31684116 1447697
-0.015098849 0.049371336 0.31671616 1447697
-0.014426511 0.049370401 0.31671616 1382674
-0.013743345 0.049330574 0.31646618 1448467
-0.013061269 0.04929084 0.31621623 1316881
-0.01238027 0.049251158 0.31596625 1382674
-0.011704988 0.049231049 0.31584126 1382674
-0.01103025 0.049210999 0.31571627 1448467
-0.010356057 0.049191024 0.31559128 1382674
-0.0096824057 0.049171131 0.31546628 1514260
-0.009012864 0.049170792 0.31546628 1580053
-0.0083433306 0.049170524 0.31546628 1710869
-0.0076738009 0.049170326 0.31546628 1579283
-0.0070042708 0.0491702 0.31546628 1054481
-0.006334743 0.049170155 0.31546628 1120787
-0.0056652082 0.04917017 0.31546628 1120787
-0.0049956674 0.049170263 0.31546628 1383959
-0.004324405 0.049150959 0.31534132 1449237
-0.0036551103 0.049151193 0.31534132 1383444
-0.0029846188 0.049132023 0.31521633 1383444
-0.0023155583 0.049132399 0.31521633 1383444
-0.0016464802 0.049132861 0.31521633 1383444
-0.00097738078 0.04913339 0.31521633 1449239
-0.0003081352 0.049114499 0.31509134 1515032
0.00036060586 0.04909569 0.31496635 1449239
0.0010292534 0.049096439 0.31496635 1317651
0.0016972582 0.049077768 0.31484136 1712409
0.0023657051 0.049078654 0.31484136 1712409
0.003032984 0.049060132 0.31471637 1909788
0.0037012401 0.049061164 0.31471637 1975583
0.0043695373 0.049062267 0.31471637 1646618
0.0050358777 0.049043957 0.31459138 1515032
0.0057017342 0.049025722 0.31446642 1712411
0.0063671079 0.049007557 0.31434143 1843995
0.007032 0.048989456 0.31421643 1778202
0.0076994793 0.048990916 0.31421643 1778202
0.0083636856 0.048972964 0.31409144 1843997
0.0090310127 0.04897457 0.31409144 1515032
0.0096945418 0.048956756 0.31396645 1843997
0.010361728 0.048958506 0.31396645 1186067
0.01102459 0.048940834 0.31384146 1186067
0.011686991 0.04892325 0.31371647 1186067
0.012348928 0.048905719 0.31359151 1054228
0.013005223 0.048868772 0.31334153 1185814
0.013665982 0.048851386 0.31321654 1185814
0.01432057 0.04881458 0.31296656 1185814
0.014980162 0.048797335 0.31284156 1579285
0.015639307 0.048780166 0.3127166 1776664
0.016304517 0.048782561 0.3127166 3347996
0.01696982 0.048785027 0.3127166 5181473
0.017628163 0.048768066 0.31259161 5313059
0.018286068 0.048751183 0.31246662 5967653
0.018966282 0.048792873 0.3127166 6164003
0.019694736 0.048951652 0.31371647 6229796
0.020378873 0.048993506 0.31396645 6557478
0.021114452 0.049152464 0.31496635 6689064
0.021785237 0.04915547 0.31496635 6819882
0.022447221 0.049139038 0.31484136 6556710
0.023108788 0.049122687 0.31471637 6754089
0.023769932 0.049106397 0.31459138 6754089
0.02443067 0.049090192 0.31446642 6753832
0.025081012 0.049054533 0.31421643 6753832
0.025730412 0.049018949 0.31396645 6950441
0.026389381 0.049002949 0.31384146 7146535
0.027037172 0.048967507 0.31359151 7212328
0.027684027 0.048932131 0.31334153 7081512
0.028341258 0.048916347 0.31321654 7015719
0.028998094 0.048900642 0.31309155 7015719
0.029654531 0.048884995 0.31296656 6949926
0.030310579 0.048869431 0.31284156 7278123
0.030966235 0.048853941 0.3127166 7278123
0.031634156 0.048858047 0.3127166 7212330
0.032302216 0.04886223 0.3127166 7278123
0.032970432 0.048866488 0.3127166 7278123
0.033638805 0.048870828 0.3127166 7278123
0.03433476 0.048914306 0.31296656 7278123
0.03500399 0.048918802 0.31296656 7081514
0.03567338 0.048923373 0.31296656 7540272
0.03631391 0.048888944 0.3127166 7737651
0.036953539 0.048854582 0.31246662 8066359
0.03753208 0.048742123 0.31171671 8525627
0.038153533 0.048688348 0.31134173 8591420
0.038804725 0.048673745 0.31121674 9182787
0.039471414 0.048678759 0.31121674 9379398
0.040073812 0.048605647 0.31071681 9445191
0.040674243 0.048532587 0.31021684 9642059
0.041006241 0.04814671 0.30771711 9838670
0.040803067 0.047154523 0.30134282 10035538
0.041191641 0.046866346 0.29946801 10364503
0.041764427 0.046793375 0.29896805 10430298
0.042352989 0.04674004 0.2985931 10627677
0.042922143 0.046667192 0.29809314 11021665
0.043489337 0.046594404 0.29759321 11219044
0.044073127 0.046541251 0.29721823 11416423
0.044711918 0.046546876 0.29721823 11744618
0.045312773 0.046513427 0.29696828 11744105
0.045951445 0.046519201 0.29696828 11678312
0.046551108 0.046485908 0.2967183 11678312
0.047189672 0.046491832 0.2967183 11809898
0.047808301 0.046478253 0.29659331 11744105
0.048426617 0.046464752 0.29646832 12006763
0.04904462 0.046451323 0.29634333 11809384
0.049662318 0.046437979 0.29621837 11875177
0.050300937 0.046444301 0.29621837 11940970
0.05093978 0.046450697 0.29621837 11875689
0.051578864 0.046457171 0.29621837 11809896
0.052218188 0.046463735 0.29621837 11678312
0.052857753 0.046470378 0.29621837 11809384
0.053520136 0.0464967 0.29634333 11875177
0.054183319 0.04652312 0.29646832 11940968
0.054847293 0.046549629 0.29659331 11875175
0.055535436 0.046595838 0.29684329 11875175
0.056248594 0.046661776 0.29721823 11875177
0.057035409 0.046786688 0.29796818 11874664
0.05787411 0.046950966 0.29896805 11874664
0.058741905 0.047135018 0.30009294 11874662
0.059466414 0.047201402 0.30046791 11677283
0.060192838 0.047267888 0.30084285 11414624
-0.072479725 0.048503362 0.30446747 7017008
-0.07173124 0.048435535 0.30409253 6885422
-0.071072333 0.048427548 0.30409253 6819629
-0.070413701 0.048419647 0.30409253 6753836
-0.069640681 0.048332248 0.30359256 6425641
-0.068898521 0.048264861 0.30321762 6295078
-0.068017609 0.048098132 0.30221772 6295078
-0.067252733 0.048011091 0.30171776 6164003
-0.066545494 0.047963943 0.30146781 6098980
-0.06586691 0.047936782 0.30134282 5967394
-0.06529732 0.047989223 0.30171776 5836835
-0.064646043 0.047982115 0.30171776 5902628
-0.064048044 0.048014838 0.30196774 5836835
-0.063422985 0.048027776 0.30209273 5901858
-0.06297943 0.048179876 0.30309263 5967651
-0.0624547 0.048272416 0.30371755 5967651
-0.061927538 0.048365023 0.30434248 5967651
-0.061347596 0.048417971 0.30471745 5967651
-0.060741395 0.048451133 0.30496743 6098982
-0.060060464 0.048424818 0.30484244 6229798
-0.059429023 0.048438288 0.30496743 6361384
-0.05886953 0.048511386 0.30546737 6426664
-0.058403388 0.048663933 0.30646726 6492457
-0.058357067 0.049173728 0.30971691 6492457
-0.057598568 0.049088232 0.30921698 6754859
-0.041536424 0.050344121 0.31796604 2887956
-0.040842135 0.050320346 0.31784105 3019283
-0.040148515 0.050296664 0.31771606 2953490
-0.03947109 0.050292853 0.31771606 3084306
-0.035197113 0.050940767 0.32196561 2951953
-0.0344714 0.050878238 0.32159063 3084302
-0.03369486 0.050736699 0.32071573 3215888
-0.032909289 0.050575484 0.31971586 3347976
-0.032128073 0.050414372 0.31871596 3413510
-0.031425208 0.050371967 0.31846598 3675912
-0.030711431 0.050309882 0.31809101 3610119
-0.030022953 0.050287414 0.31796604 3413510
-0.029346628 0.050284795 0.31796604 3413510
-0.028647846 0.050242718 0.31771606 3479303
-0.02797222 0.050240248 0.31771606 3545096
-0.027285932 0.050218094 0.31759107 3283207
-0.02661073 0.050215788 0.31759107 3283207
-0.0259254 0.050193798 0.31746608 3217927
-0.025250608 0.050191645 0.31746608 3152134
-0.024566213 0.050169807 0.31734109 3349000
-0.023882413 0.050148055 0.3172161 3348998
-0.023199212 0.050126374 0.31709114 3414791
-0.022516603 0.050104771 0.31696615 3283205
-0.021843191 0.050102998 0.31696615 3217927
-0.021169838 0.050101303 0.31696615 3152134
-0.020496542 0.050099682 0.31696615 3087111
-0.01982329 0.050098144 0.31696615 3086857
-0.019157639 0.050116424 0.31709114 3086857
-0.018491505 0.050134793 0.3172161 3021064
-0.017824879 0.050153226 0.31734109 2692615
-0.017151009 0.050151985 0.31734109 2692615
-0.016477179 0.050150823 0.31734109 2824714
-0.01580338 0.050149735 0.31734109 2496521
-0.015123653 0.050128955 0.3172161 1709581
-0.014444489 0.050108269 0.31709114 1579278
-0.013765884 0.050087657 0.31696615 1513233
-0.013082667 0.050047357 0.31671616 1381647
-0.012400535 0.050007135 0.31646618 1513487
-0.011719486 0.049967002 0.31621623 1513487
-0.011048244 0.049966425 0.31621623 1381901
-0.010372917 0.049946185 0.31609124 1513487
-0.0096981311 0.049926016 0.31596625 1513487
-0.0090274569 0.049925674 0.31596625 1579280
-0.0083567891 0.049925406 0.31596625 1579280
-0.0076861251 0.049925204 0.31596625 1513487
-0.0070154606 0.049925074 0.31596625 1316111
-0.0063447962 0.049925026 0.31596625 1316883
-0.0056718835 0.049905293 0.31584126 1185297
-0.0050014746 0.049905386 0.31584126 1382674
-0.004331057 0.049905565 0.31584126 1448467
-0.0036591794 0.049886052 0.31571627 1382674
-0.002989002 0.049886368 0.31571627 1382674
-0.0023188088 0.049886756 0.31571627 1447697
-0.0016479435 0.049867474 0.31559128 1447697
-0.000977588 0.049848247 0.31546628 1382674
-0.0003078614 0.049848866 0.31546628 1382674
0.00036174807 0.0498298 0.31534132 1448467
0.0010308555 0.049810797 0.31521633 1251858
0.0017001377 0.049811631 0.31521633 1383444
0.0023694534 0.049812529 0.31521633 1251858
0.0030388057 0.049813498 0.31521633 1317653
0.0037081959 0.049814545 0.31521633 1251860
0.0043776282 0.049815673 0.31521633 1317653
0.0050471043 0.049816854 0.31521633 1317653
0.0057143588 0.049798369 0.31509134 1383446
0.0063811322 0.049779959 0.31496635 1449239
0.007047425 0.049761619 0.31484136 1383444
0.0077132396 0.049743343 0.31471637 1449237
0.0083752535 0.049705401 0.31446642 1449239
0.0090398546 0.04968727 0.31434143 1383446
0.0097078476 0.049688969 0.31434143 1646618
0.010371779 0.049670987 0.31421643 1054481
