# .PCD v0.7 - Point Cloud Data file format
VERSION 0.7
FIELDS x y z rgba
SIZE 4 4 4 4
TYPE F F F U
COUNT 1 1 1 1
WIDTH 1137
HEIGHT 1
VIEWPOINT 0 0 0 1 0 0 0
POINTS 1137
DATA ascii
0.028757142 -0.1195019 0.671 16711422
0.029990477 -0.11932381 0.67000002 16711422
0.031266667 -0.11932381 0.67000002 16645886
0.032494288 -0.11914571 0.66900003 16645113
0.03366762 -0.11878953 0.66700006 16447989
0.034833334 -0.11843333 0.66500002 16250353
0.035991434 -0.11807715 0.66300005 15856109
0.037254289 -0.11807715 0.66300005 15460834
0.038459051 -0.11789906 0.66200006 13689303
0.0396 -0.11754286 0.66000003 11910615
0.040857144 -0.11754286 0.66000003 11442648
0.041922856 -0.11700857 0.65700001 10994137
0.043174285 -0.11700857 0.65700001 12712922
0.044358093 -0.11683048 0.65600002 14468764
0.045538098 -0.11665238 0.65500003 10916701
0.046785716 -0.11665238 0.65500003 7443316
0.048033334 -0.11665238 0.65500003 8885131
0.049280953 -0.11665238 0.65500003 10324612
0.050374292 -0.11629619 0.65300006 10120830
0.051618099 -0.11629619 0.65300006 9942435
0.05286191 -0.11629619 0.65300006 11130825
0.054105718 -0.11629619 0.65300006 12300986
0.055349529 -0.11629619 0.65300006 11103660
0.056593336 -0.11629619 0.65300006 9924285
0.057748571 -0.1161181 0.65200001 10842062
0.059080955 -0.11629619 0.65300006 11845313
0.060232379 -0.1161181 0.65200001 11777461
0.061380003 -0.11594 0.65100002 11711920
0.062619999 -0.11594 0.65100002 11513515
0.063859999 -0.11594 0.65100002 11316904
0.064999998 -0.11576191 0.65000004 11186085
0.066238098 -0.11576191 0.65000004 11120039
0.067476198 -0.11576191 0.65000004 10988457
0.068502858 -0.11540572 0.648 10921385
0.069737144 -0.11540572 0.648 10724777
0.070971422 -0.11540572 0.648 10593444
0.072205715 -0.11540572 0.648 10527904
0.07344 -0.11540572 0.648 10462625
0.074674278 -0.11540572 0.648 10856099
0.075908571 -0.11540572 0.648 11315086
0.077142857 -0.11540572 0.648 9611641
0.078377143 -0.11540572 0.648 7956578
0.079611428 -0.11540572 0.648 7615563
0.081095241 -0.11576191 0.65000004 7301464
0.082333334 -0.11576191 0.65000004 7762789
0.083571434 -0.11576191 0.65000004 8287066
0.084809527 -0.11576191 0.65000004 6648911
0.086180001 -0.11594 0.65100002 5010761
0.087554283 -0.1161181 0.65200001 4879939
0.088796191 -0.1161181 0.65200001 4814151
0.090038098 -0.1161181 0.65200001 4814924
0.091420002 -0.11629619 0.65300006 4813894
0.09266381 -0.11629619 0.65300006 4748097
0.093907632 -0.11629619 0.65300006 4747577
0.095151439 -0.11629619 0.65300006 5074481
0.096395247 -0.11629619 0.65300006 5402168
0.097639054 -0.11629619 0.65300006 5205568
0.098882869 -0.11629619 0.65300006 5074244
0.10012668 -0.11629619 0.65300006 5074249
0.10137048 -0.11629619 0.65300006 5073979
0.10261429 -0.11629619 0.65300006 4811822
0.10385811 -0.11629619 0.65300006 4613164
0.10542382 -0.11665238 0.65500003 4218923
0.10667143 -0.11665238 0.65500003 3824163
0.10808381 -0.11683048 0.65600002 3429147
0.10933334 -0.11683048 0.65600002 3032865
0.11092001 -0.11718668 0.65800005 1710120
0.11217334 -0.11718668 0.65800005 398873
0.11377143 -0.11754286 0.66000003 857610
0.11520286 -0.11772095 0.66100001 1382413
0.11716667 -0.11843333 0.66500002 1383184
0.11878953 -0.11878953 0.66700006 1383454
0.12042 -0.11914571 0.66900003 1449261
0.12187619 -0.11932381 0.67000002 1579808
0.1233362 -0.1195019 0.671 1317396
0.12461428 -0.1195019 0.671 1054734
0.12589237 -0.1195019 0.671 1316616
0.017434288 -0.11945715 0.67800003 5737073
0.018725716 -0.11945715 0.67800003 11200720
0.020017143 -0.11945715 0.67800003 16645863
0.021245716 -0.11910477 0.67600006 16645886
0.022499999 -0.11892857 0.67500001 16711384
0.023750478 -0.11875238 0.67400002 14787762
0.024960002 -0.11840001 0.67200005 12896216
0.026240002 -0.11840001 0.67200005 14810878
0.027479049 -0.11822381 0.671 16711422
0.028757142 -0.11822381 0.671 16711422
0.029990477 -0.11804762 0.67000002 16711422
0.031266667 -0.11804762 0.67000002 16580350
0.032494288 -0.11787143 0.66900003 16512507
0.033617143 -0.11734285 0.66600001 16382201
0.034833334 -0.11716667 0.66500002 16251381
0.035991434 -0.11681429 0.66300005 15723761
0.037254289 -0.11681429 0.66300005 15132886
0.038459051 -0.1166381 0.66200006 13622204
0.039659999 -0.11646191 0.66100001 12091334
0.040857144 -0.11628572 0.66000003 11701969
0.041922856 -0.11575714 0.65700001 11382741
0.043108571 -0.11558095 0.65600002 12709593
0.044290476 -0.11540476 0.65500003 14013870
0.045538098 -0.11540476 0.65500003 10787204
0.046785716 -0.11540476 0.65500003 7561352
0.048033334 -0.11540476 0.65500003 8882572
0.049130481 -0.11505239 0.65300006 10126729
0.050374292 -0.11505239 0.65300006 10055814
0.051618099 -0.11505239 0.65300006 10010278
0.05286191 -0.11505239 0.65300006 11326919
0.054105718 -0.11505239 0.65300006 12627388
0.055349529 -0.11505239 0.65300006 11767730
0.056593336 -0.11505239 0.65300006 10944964
0.057837147 -0.11505239 0.65300006 11506390
0.059080955 -0.11505239 0.65300006 12043969
0.060324769 -0.11505239 0.65300006 11842732
0.06147429 -0.11487619 0.65200001 11646378
0.062619999 -0.1147 0.65100002 11447465
0.063859999 -0.1147 0.65100002 11250598
0.064999998 -0.11452381 0.65000004 11119779
0.066238098 -0.11452381 0.65000004 11054502
0.067476198 -0.11452381 0.65000004 10987433
0.068502858 -0.11417142 0.648 10921127
0.069737144 -0.11417142 0.648 10724773
0.070971422 -0.11417142 0.648 10593186
0.072205715 -0.11417142 0.648 10462112
0.07344 -0.11417142 0.648 10330788
0.074674278 -0.11417142 0.648 10527912
0.075908571 -0.11417142 0.648 10725267
0.077142857 -0.11417142 0.648 9741695
0.078377143 -0.11417142 0.648 8679785
0.079611428 -0.11417142 0.648 7550036
0.081095241 -0.11452381 0.65000004 6513750
0.082333334 -0.11452381 0.65000004 7567448
0.083571434 -0.11452381 0.65000004 8616275
0.084809527 -0.11452381 0.65000004 6911566
0.086180001 -0.1147 0.65100002 5207115
0.087554283 -0.11487619 0.65200001 4944713
0.088796191 -0.11487619 0.65200001 4617034
0.090038098 -0.11487619 0.65200001 4748363
0.091279998 -0.11487619 0.65200001 4879682
0.09266381 -0.11505239 0.65300006 4879162
0.093907632 -0.11505239 0.65300006 4813101
0.095151439 -0.11505239 0.65300006 4943393
0.096395247 -0.11505239 0.65300006 5074221
0.097639054 -0.11505239 0.65300006 5008698
0.098882869 -0.11505239 0.65300006 5008959
0.10043333 -0.11540476 0.65500003 5073733
0.10168096 -0.11540476 0.65500003 5204286
0.10292857 -0.11540476 0.65500003 4942648
0.10417619 -0.11540476 0.65500003 4678455
0.10542382 -0.11540476 0.65500003 4350007
0.10667143 -0.11540476 0.65500003 4020769
0.10791905 -0.11540476 0.65500003 3496204
0.10933334 -0.11558095 0.65600002 3033371
0.11092001 -0.11593334 0.65800005 1973034
0.11217334 -0.11593334 0.65800005 857877
0.11377143 -0.11628572 0.66000003 1054721
0.11520286 -0.11646191 0.66100001 1251849
0.11681429 -0.11681429 0.66300005 1251601
0.11861143 -0.11734285 0.66600001 1251624
0.12042 -0.11787143 0.66900003 1448256
0.12205809 -0.11822381 0.671 1644845
0.1233362 -0.11822381 0.671 1382426
0.12517144 -0.11875238 0.67400002 1121806
0.12645523 -0.11875238 0.67400002 988930
0.017434288 -0.11816572 0.67800003 6465675
0.018670477 -0.11781715 0.67600006 11594726
0.019958096 -0.11781715 0.67600006 16711409
0.021245716 -0.11781715 0.67600006 16711420
0.022499999 -0.11764286 0.67500001 16704228
0.023750478 -0.11746857 0.67400002 15580108
0.025034286 -0.11746857 0.67400002 14541541
0.026240002 -0.11712001 0.67200005 15597310
0.027520001 -0.11712001 0.67200005 16711422
0.028757142 -0.11694571 0.671 16711422
0.030035239 -0.11694571 0.671 16711422
0.031266667 -0.11677143 0.67000002 16514814
0.032494288 -0.11659715 0.66900003 16382971
0.033617143 -0.11607429 0.66600001 16316665
0.034833334 -0.1159 0.66500002 16316661
0.035991434 -0.11555143 0.66300005 15591664
0.037254289 -0.11555143 0.66300005 14870754
0.038459051 -0.11537715 0.66200006 13620947
0.0396 -0.11502858 0.66000003 12364490
0.040857144 -0.11502858 0.66000003 12026816
0.041922856 -0.11450572 0.65700001 11782857
0.043174285 -0.11450572 0.65700001 12706514
0.044358093 -0.11433143 0.65600002 13619377
0.045538098 -0.11415715 0.65500003 10657680
0.046785716 -0.11415715 0.65500003 7759758
0.048033334 -0.11415715 0.65500003 8880269
0.049130481 -0.11380858 0.65300006 9996945
0.050374292 -0.11380858 0.65300006 10056341
0.051618099 -0.11380858 0.65300006 10140329
0.05286191 -0.11380858 0.65300006 11588542
0.054105718 -0.11380858 0.65300006 13024443
0.055349529 -0.11380858 0.65300006 12497593
0.056593336 -0.11380858 0.65300006 12039359
0.057837147 -0.11380858 0.65300006 12105413
0.059080955 -0.11380858 0.65300006 12236216
0.060324769 -0.11380858 0.65300006 11908268
0.06147429 -0.11363429 0.65200001 11579305
0.062619999 -0.11346 0.65100002 11381670
0.063859999 -0.11346 0.65100002 11185057
0.064999998 -0.11328572 0.65000004 11119773
0.066238098 -0.11328572 0.65000004 11053733
0.067268573 -0.11293714 0.648 10986669
0.068502858 -0.11293714 0.648 10921127
0.069737144 -0.11293714 0.648 10724769
0.070971422 -0.11293714 0.648 10593695
0.072205715 -0.11293714 0.648 10397084
0.07344 -0.11293714 0.648 10265247
0.074674278 -0.11293714 0.648 10199969
0.075908571 -0.11293714 0.648 10199704
0.077142857 -0.11293714 0.648 9806223
0.078377143 -0.11293714 0.648 9471339
0.079611428 -0.11293714 0.648 7550280
0.081095241 -0.11328572 0.65000004 5726028
0.082079999 -0.11293714 0.648 7306576
0.083571434 -0.11328572 0.65000004 8944721
0.084809527 -0.11328572 0.65000004 7170387
0.086180001 -0.11346 0.65100002 5466955
0.087420002 -0.11346 0.65100002 4943427
0.088660002 -0.11346 0.65100002 4485963
0.090038098 -0.11363429 0.65200001 4748370
0.091279998 -0.11363429 0.65200001 5010505
0.092521906 -0.11363429 0.65200001 4944960
0.093763813 -0.11363429 0.65200001 4943934
0.095151439 -0.11380858 0.65300006 4878140
0.096395247 -0.11380858 0.65300006 4812351
0.097938098 -0.11415715 0.65500003 4877634
0.09918572 -0.11415715 0.65500003 4942912
0.10043333 -0.11415715 0.65500003 5139006
0.10168096 -0.11415715 0.65500003 5401152
0.10292857 -0.11415715 0.65500003 5073474
0.10417619 -0.11415715 0.65500003 4809788
0.10542382 -0.11415715 0.65500003 4481078
0.10667143 -0.11415715 0.65500003 4218914
0.10791905 -0.11415715 0.65500003 3629069
0.10933334 -0.11433143 0.65600002 3100447
0.11075143 -0.11450572 0.65700001 2236210
0.11217334 -0.11468001 0.65800005 1382428
0.11342667 -0.11468001 0.65800005 1249542
0.11520286 -0.11520286 0.66100001 1184521
0.11681429 -0.11555143 0.66300005 1119757
0.11861143 -0.11607429 0.66600001 1120798
0.12006001 -0.11624859 0.66700006 1446192
0.12187619 -0.11677143 0.67000002 1775397
0.1233362 -0.11694571 0.671 1447450
0.12461428 -0.11694571 0.671 1185300
0.12645523 -0.11746857 0.67400002 726797
0.017434288 -0.11687429 0.67800003 7456677
0.018670477 -0.11652953 0.67600006 12055805
0.019958096 -0.11652953 0.67600006 16711420
0.021245716 -0.11652953 0.67600006 15659259
0.022533335 -0.11652953 0.67600006 14665712
0.023750478 -0.11618476 0.67400002 15129830
0.025034286 -0.11618476 0.67400002 15597298
0.026240002 -0.11584001 0.67200005 16121598
0.027520001 -0.11584001 0.67200005 16711422
0.028757142 -0.11566762 0.671 16711422
0.030035239 -0.11566762 0.671 16711422
0.031266667 -0.11549524 0.67000002 16580350
0.032494288 -0.11532286 0.66900003 16449276
0.03366762 -0.1149781 0.66700006 16185594
0.034833334 -0.11463334 0.66500002 15988981
0.035991434 -0.11428858 0.66300005 15526128
0.037198097 -0.1141162 0.66200006 15067629
0.038459051 -0.1141162 0.66200006 14079979
0.0396 -0.11377143 0.66000003 13095629
0.040733337 -0.11342667 0.65800005 13032624
0.041986667 -0.11342667 0.65800005 12969662
0.043174285 -0.11325429 0.65700001 13163980
0.044358093 -0.1130819 0.65600002 13421748
0.045538098 -0.11290953 0.65500003 10196381
0.046785716 -0.11290953 0.65500003 7040917
0.048033334 -0.11290953 0.65500003 8752526
0.049130481 -0.11256477 0.65300006 10456985
0.050374292 -0.11256477 0.65300006 9478820
0.051618099 -0.11256477 0.65300006 8435373
0.05286191 -0.11256477 0.65300006 10735286
0.054022856 -0.11239238 0.65200001 12963003
0.05526476 -0.11239238 0.65200001 12435392
0.056593336 -0.11256477 0.65300006 11977402
0.057748571 -0.11239238 0.65200001 11909300
0.058990479 -0.11239238 0.65200001 11908016
0.060232379 -0.11239238 0.65200001 11645357
0.06147429 -0.11239238 0.65200001 11381160
0.062619999 -0.11222 0.65100002 11250595
0.063761905 -0.11204763 0.65000004 11120285
0.064999998 -0.11204763 0.65000004 11053976
0.066034287 -0.11170286 0.648 10987684
0.067268573 -0.11170286 0.648 10921649
0.068502858 -0.11170286 0.648 10855847
0.069737144 -0.11170286 0.648 10724766
0.070971422 -0.11170286 0.648 10594715
0.072205715 -0.11170286 0.648 10396313
0.07344 -0.11170286 0.648 10264730
0.074674278 -0.11170286 0.648 10199963
0.075908571 -0.11170286 0.648 10068893
0.077142857 -0.11170286 0.648 9872031
0.078377143 -0.11170286 0.648 9673069
0.079611428 -0.11170286 0.648 7813436
0.081095241 -0.11204763 0.65000004 5986882
0.082333334 -0.11204763 0.65000004 7437640
0.083571434 -0.11204763 0.65000004 8945488
0.084809527 -0.11204763 0.65000004 7564121
0.086180001 -0.11222 0.65100002 6187595
0.087554283 -0.11239238 0.65200001 5402174
0.088660002 -0.11222 0.65100002 4617036
0.090038098 -0.11239238 0.65200001 4813402
0.091279998 -0.11239238 0.65200001 5010000
0.09266381 -0.11256477 0.65300006 4878407
0.093907632 -0.11256477 0.65300006 4812623
0.095151439 -0.11256477 0.65300006 4746583
0.096690476 -0.11290953 0.65500003 4745553
0.097938098 -0.11290953 0.65500003 4745803
0.09918572 -0.11290953 0.65500003 4746049
0.10043333 -0.11290953 0.65500003 4877368
0.10168096 -0.11290953 0.65500003 5074754
0.10292857 -0.11290953 0.65500003 4811341
0.10417619 -0.11290953 0.65500003 4613697
0.10542382 -0.11290953 0.65500003 4416566
0.10667143 -0.11290953 0.65500003 4153890
0.10791905 -0.11290953 0.65500003 3693583
0.10916667 -0.11290953 0.65500003 3167780
0.11058286 -0.1130819 0.65600002 2436666
0.11183238 -0.1130819 0.65600002 1710626
0.11342667 -0.11342667 0.65800005 1514763
0.11537715 -0.1141162 0.66200006 1318922
0.11681429 -0.11428858 0.66300005 1252873
0.11861143 -0.11480572 0.66600001 1252372
0.11988 -0.11480572 0.66600001 1447968
0.12187619 -0.11549524 0.67000002 1709341
0.1233362 -0.11566762 0.671 1381403
0.12517144 -0.11618476 0.67400002 1119002
0.12645523 -0.11618476 0.67400002 660249
0.017434288 -0.11558286 0.67800003 8503462
0.018725716 -0.11558286 0.67800003 12582648
0.020017143 -0.11558286 0.67800003 16711408
0.021245716 -0.11524191 0.67600006 14672873
0.022533335 -0.11524191 0.67600006 12643053
0.023785714 -0.11507143 0.67500001 14676722
0.025034286 -0.11490095 0.67400002 16711416
0.026318096 -0.11490095 0.67400002 16711422
0.027520001 -0.11456001 0.67200005 16711422
0.028757142 -0.11438952 0.671 16711422
0.030035239 -0.11438952 0.671 16711422
0.031266667 -0.11421905 0.67000002 16580350
0.032494288 -0.11404858 0.66900003 16514043
0.03366762 -0.11370763 0.66700006 16120056
0.034833334 -0.11336667 0.66500002 15725555
0.035991434 -0.11302572 0.66300005 15526381
0.037198097 -0.11285525 0.66200006 15330792
0.038400952 -0.11268476 0.66100001 14604771
0.0396 -0.11251429 0.66000003 13884116
0.040733337 -0.11217334 0.65800005 14015429
0.041986667 -0.11217334 0.65800005 14146246
0.043174285 -0.11200286 0.65700001 13687240
0.044358093 -0.11183238 0.65600002 13223607
0.045538098 -0.1116619 0.65500003 9800871
0.046785716 -0.1116619 0.65500003 6394775
0.048033334 -0.1116619 0.65500003 8690312
0.049130481 -0.11132096 0.65300006 10983794
0.050374292 -0.11132096 0.65300006 8864604
0.051618099 -0.11132096 0.65300006 6789009
0.052780952 -0.11115047 0.65200001 9882053
0.054022856 -0.11115047 0.65200001 12961476
0.05526476 -0.11115047 0.65200001 12434627
0.056506667 -0.11115047 0.65200001 11910074
0.057748571 -0.11115047 0.65200001 11713201
0.058990479 -0.11115047 0.65200001 11579567
0.060232379 -0.11115047 0.65200001 11382445
0.061380003 -0.11098 0.65100002 11185576
0.062619999 -0.11098 0.65100002 11119779
0.063761905 -0.11080953 0.65000004 11119521
0.064999998 -0.11080953 0.65000004 10988192
0.066034287 -0.11046857 0.648 10921893
0.067268573 -0.11046857 0.648 10856363
0.068502858 -0.11046857 0.648 10856100
0.069737144 -0.11046857 0.648 10725021
0.070971422 -0.11046857 0.648 10593172
0.072205715 -0.11046857 0.648 10461324
0.07344 -0.11046857 0.648 10330258
0.074674278 -0.11046857 0.648 10134424
0.075908571 -0.11046857 0.648 10003353
0.077142857 -0.11046857 0.648 9937819
0.078377143 -0.11046857 0.648 9866349
0.079611428 -0.11046857 0.648 8011328
0.081095241 -0.11080953 0.65000004 6249549
0.082333334 -0.11080953 0.65000004 7568986
0.083571434 -0.11080953 0.65000004 8943709
0.084940001 -0.11098 0.65100002 7892577
0.086312376 -0.11115047 0.65200001 6909515
0.087554283 -0.11115047 0.65200001 5860917
0.088796191 -0.11115047 0.65200001 4812356
0.090038098 -0.11115047 0.65200001 4878163
0.091279998 -0.11115047 0.65200001 5009228
0.09266381 -0.11132096 0.65300006 4812614
0.093907632 -0.11132096 0.65300006 4681032
0.095442861 -0.1116619 0.65500003 4680779
0.096690476 -0.1116619 0.65500003 4745798
0.097938098 -0.1116619 0.65500003 4614209
0.09918572 -0.1116619 0.65500003 4549687
0.10043333 -0.1116619 0.65500003 4615725
0.10168096 -0.1116619 0.65500003 4747062
0.10292857 -0.1116619 0.65500003 4614975
0.10417619 -0.1116619 0.65500003 4482876
0.10542382 -0.1116619 0.65500003 4286009
0.10667143 -0.1116619 0.65500003 4154406
0.10791905 -0.1116619 0.65500003 3692564
0.10916667 -0.1116619 0.65500003 3299105
0.11058286 -0.11183238 0.65600002 2637358
0.11217334 -0.11217334 0.65800005 2040094
0.11377143 -0.11251429 0.66000003 1776654
0.11537715 -0.11285525 0.66200006 1515021
0.11681429 -0.11302572 0.66300005 1450509
0.11843333 -0.11336667 0.66500002 1382931
0.12006001 -0.11370763 0.66700006 1515032
0.12169429 -0.11404858 0.66900003 1643796
0.1233362 -0.11438952 0.671 1314575
0.12517144 -0.11490095 0.67400002 1052436
0.12645523 -0.11490095 0.67400002 659225
0.017434288 -0.11429143 0.67800003 9091496
0.018725716 -0.11429143 0.67800003 12910323
0.020017143 -0.11429143 0.67800003 16711397
0.021245716 -0.11395429 0.67600006 14339543
0.022533335 -0.11395429 0.67600006 12037354
0.023785714 -0.11378571 0.67500001 14350590
0.025034286 -0.11361714 0.67400002 16711422
0.026318096 -0.11361714 0.67400002 16711422
0.027520001 -0.11328001 0.67200005 16711422
0.028757142 -0.11311143 0.671 16711422
0.030035239 -0.11311143 0.671 16711422
0.031266667 -0.11294286 0.67000002 16514814
0.032494288 -0.11277429 0.66900003 16315642
0.033617143 -0.11226857 0.66600001 16054007
0.034833334 -0.1121 0.66500002 15855601
0.035991434 -0.11176286 0.66300005 15528171
0.037141904 -0.11142571 0.66100001 15266275
0.038400952 -0.11142571 0.66100001 14671324
0.0396 -0.11125715 0.66000003 14014427
0.040733337 -0.11092001 0.65800005 13949402
0.041986667 -0.11092001 0.65800005 13884623
0.043174285 -0.11075143 0.65700001 13229508
0.044358093 -0.11058286 0.65600002 12632250
0.045538098 -0.11041429 0.65500003 9275825
0.046785716 -0.11041429 0.65500003 5984921
0.048033334 -0.11041429 0.65500003 8562050
0.049130481 -0.11007715 0.65300006 11182923
0.050374292 -0.11007715 0.65300006 9211413
0.051618099 -0.11007715 0.65300006 7174517
0.05286191 -0.11007715 0.65300006 8953045
0.054105718 -0.11007715 0.65300006 10731725
0.05526476 -0.10990857 0.65200001 11320774
0.056506667 -0.10990857 0.65200001 11909818
0.057748571 -0.10990857 0.65200001 11646638
0.058990479 -0.10990857 0.65200001 11382446
0.060232379 -0.10990857 0.65200001 11251374
0.061380003 -0.10974 0.65100002 11120553
0.062523812 -0.10957143 0.65000004 11054500
0.063761905 -0.10957143 0.65000004 10988198
0.064999998 -0.10957143 0.65000004 10922152
0.066034287 -0.10923428 0.648 10790566
0.067268573 -0.10923428 0.648 10790565
0.068502858 -0.10923428 0.648 10790560
0.069737144 -0.10923428 0.648 10658460
0.070971422 -0.10923428 0.648 10526606
0.072205715 -0.10923428 0.648 10395264
0.07344 -0.10923428 0.648 10329482
0.074674278 -0.10923428 0.648 10263445
0.075908571 -0.10923428 0.648 10263190
0.077142857 -0.10923428 0.648 9413016
0.078377143 -0.10923428 0.648 8486766
0.079611428 -0.10923428 0.648 7818052
0.081095241 -0.10957143 0.65000004 7167576
0.082333334 -0.10957143 0.65000004 7960941
0.083700001 -0.10974 0.65100002 8810859
0.084940001 -0.10974 0.65100002 7958633
0.086312376 -0.10990857 0.65200001 7107402
0.087554283 -0.10990857 0.65200001 5794860
0.088796191 -0.10990857 0.65200001 4483900
0.090038098 -0.10990857 0.65200001 4615757
0.091420002 -0.11007715 0.65300006 4746825
0.09266381 -0.11007715 0.65300006 4549957
0.093907632 -0.11007715 0.65300006 4418114
0.095442861 -0.11041429 0.65500003 4483648
0.096690476 -0.11041429 0.65500003 4549436
0.097938098 -0.11041429 0.65500003 4549688
0.099337146 -0.11058286 0.65600002 4615725
0.10058667 -0.11058286 0.65600002 4681251
0.10168096 -0.11041429 0.65500003 4812586
0.10292857 -0.11041429 0.65500003 4680498
0.10417619 -0.11041429 0.65500003 4483383
0.10542382 -0.11041429 0.65500003 4285756
0.10667143 -0.11041429 0.65500003 4154923
0.10791905 -0.11041429 0.65500003 3759130
0.10916667 -0.11041429 0.65500003 3430430
0.11075143 -0.11075143 0.65700001 2834722
0.11217334 -0.11092001 0.65800005 2304281
0.11377143 -0.11125715 0.66000003 1841425
0.11537715 -0.1115943 0.66200006 1382929
0.11681429 -0.11176286 0.66300005 1382674
0.11843333 -0.1121 0.66500002 1382673
0.12006001 -0.11243715 0.66700006 1382161
0.12187619 -0.11294286 0.67000002 1447434
0.1233362 -0.11311143 0.671 1120260
0.12517144 -0.11361714 0.67400002 793102
0.12645523 -0.11361714 0.67400002 594713
0.016166667 -0.11316667 0.67900002 6784615
0.01746 -0.11316667 0.67900002 9681323
0.018725716 -0.11300001 0.67800003 13172463
0.020017143 -0.11300001 0.67800003 16711137
0.021245716 -0.11266667 0.67600006 14072020
0.022533335 -0.11266667 0.67600006 11447785
0.023785714 -0.1125 0.67500001 14089982
0.025034286 -0.11233333 0.67400002 16711422
0.026318096 -0.11233333 0.67400002 16711422
0.027601905 -0.11233333 0.67400002 16711422
0.028800001 -0.112 0.67200005 16711422
0.030035239 -0.11183333 0.671 16711422
0.031266667 -0.11166666 0.67000002 16449278
0.032397144 -0.11116667 0.66700006 16185850
0.03366762 -0.11116667 0.66700006 16053495
0.034833334 -0.11083333 0.66500002 15987187
0.035991434 -0.11050001 0.66300005 15593455
0.037141904 -0.11016667 0.66100001 15263973
0.038400952 -0.11016667 0.66100001 14738139
0.0396 -0.11000001 0.66000003 14210779
0.040733337 -0.10966668 0.65800005 13949148
0.041922856 -0.1095 0.65700001 13688018
0.043174285 -0.1095 0.65700001 12837321
0.044358093 -0.10933334 0.65600002 12036525
0.045538098 -0.10916667 0.65500003 8786577
0.046785716 -0.10916667 0.65500003 5595525
0.048033334 -0.10916667 0.65500003 8499321
0.049130481 -0.10883334 0.65300006 11442526
0.050374292 -0.10883334 0.65300006 9534276
0.051618099 -0.10883334 0.65300006 7633259
0.05286191 -0.10883334 0.65300006 8091537
0.054105718 -0.10883334 0.65300006 8559536
0.05526476 -0.10866667 0.65200001 10272719
0.056506667 -0.10866667 0.65200001 11974081
0.057748571 -0.10866667 0.65200001 11580083
0.058990479 -0.10866667 0.65200001 11186093
0.060140003 -0.1085 0.65100002 11120296
0.061380003 -0.1085 0.65100002 11120294
0.062523812 -0.10833334 0.65000004 10989219
0.063761905 -0.10833334 0.65000004 10922153
0.064999998 -0.10833334 0.65000004 10790832
0.066034287 -0.108 0.648 10725034
0.067268573 -0.108 0.648 10725028
0.068502858 -0.108 0.648 10725280
0.069737144 -0.108 0.648 10591389
0.070971422 -0.108 0.648 10460053
0.072205715 -0.108 0.648 10394253
0.07344 -0.108 0.648 10328726
0.074674278 -0.108 0.648 10459807
0.075908571 -0.108 0.648 10591640
0.077142857 -0.108 0.648 8888465
0.078619048 -0.10833334 0.65000004 7171679
0.079857148 -0.10833334 0.65000004 7625006
0.081095241 -0.10833334 0.65000004 8088135
0.082333334 -0.10833334 0.65000004 8352865
0.083571434 -0.10833334 0.65000004 8680037
0.084940001 -0.1085 0.65100002 8024170
0.086180001 -0.1085 0.65100002 7368517
0.087554283 -0.10866667 0.65200001 5729056
0.088796191 -0.10866667 0.65200001 4156469
0.090038098 -0.10866667 0.65200001 4353354
0.091279998 -0.10866667 0.65200001 4549700
0.09266381 -0.10883334 0.65300006 4353086
0.093907632 -0.10883334 0.65300006 4155702
0.095442861 -0.10916667 0.65500003 4286766
0.096838094 -0.10933334 0.65600002 4418613
0.098087624 -0.10933334 0.65600002 4550460
0.099337146 -0.10933334 0.65600002 4681268
0.10058667 -0.10933334 0.65600002 4812332
0.10168096 -0.10916667 0.65500003 4943151
0.10292857 -0.10916667 0.65500003 4746035
0.10417619 -0.10916667 0.65500003 4548923
0.10542382 -0.10916667 0.65500003 4351300
0.10667143 -0.10916667 0.65500003 4154158
0.10791905 -0.10916667 0.65500003 3825687
0.10916667 -0.10916667 0.65500003 3562011
0.11075143 -0.1095 0.65700001 3032096
0.11217334 -0.10966668 0.65800005 2567193
0.11377143 -0.11000001 0.66000003 1906451
0.11537715 -0.11033335 0.66200006 1316369
0.11681429 -0.11050001 0.66300005 1316367
0.11843333 -0.11083333 0.66500002 1382159
0.11988 -0.111 0.66600001 1317392
0.12169429 -0.1115 0.66900003 1317643
0.1233362 -0.11183333 0.671 924679
0.12517144 -0.11233333 0.67400002 531470
0.12645523 -0.11233333 0.67400002 530197
0.016166667 -0.11187334 0.67900002 6717809
0.01746 -0.11187334 0.67900002 10140334
0.018725716 -0.11170857 0.67800003 13369067
0.020017143 -0.11170857 0.67800003 16645342
0.021308571 -0.11170857 0.67800003 14138578
0.022533335 -0.11137906 0.67600006 11710184
0.023785714 -0.11121429 0.67500001 14220542
0.025034286 -0.11104953 0.67400002 16711422
0.026357144 -0.11121429 0.67500001 16711422
0.027601905 -0.11104953 0.67400002 16711422
0.028800001 -0.11072001 0.67200005 16645886
0.030035239 -0.11055524 0.671 16580350
0.031266667 -0.11039048 0.67000002 16449278
0.032397144 -0.1098962 0.66700006 16383738
0.033617143 -0.10973143 0.66600001 16185079
0.034833334 -0.10956667 0.66500002 16054005
0.035991434 -0.10923715 0.66300005 15594227
0.037198097 -0.10907239 0.66200006 15065830
0.038400952 -0.10890763 0.66100001 14474714
0.0396 -0.10874286 0.66000003 13948636
0.040733337 -0.10841334 0.65800005 13817566
0.041986667 -0.10841334 0.65800005 13684438
0.043174285 -0.10824858 0.65700001 11645134
0.044358093 -0.10808381 0.65600002 9671328
0.045607619 -0.10808381 0.65600002 8749426
0.046785716 -0.10791905 0.65500003 7893361
0.048033334 -0.10791905 0.65500003 9470064
0.049130481 -0.10758953 0.65300006 11112306
0.050374292 -0.10758953 0.65300006 10061684
0.051618099 -0.10758953 0.65300006 9007969
0.05286191 -0.10758953 0.65300006 8090958
0.054105718 -0.10758953 0.65300006 7239827
0.05526476 -0.10742477 0.65200001 9213145
0.056506667 -0.10742477 0.65200001 11121096
0.057748571 -0.10742477 0.65200001 11186360
0.058990479 -0.10742477 0.65200001 11186349
0.060140003 -0.10726 0.65100002 11120035
0.061380003 -0.10726 0.65100002 11119779
0.062523812 -0.10709524 0.65000004 10988707
0.063761905 -0.10709524 0.65000004 10856109
0.064999998 -0.10709524 0.65000004 10724792
0.066034287 -0.10676572 0.648 10658990
0.067268573 -0.10676572 0.648 10659492
0.068502858 -0.10676572 0.648 10660257
0.069737144 -0.10676572 0.648 10526366
0.070971422 -0.10676572 0.648 10394268
0.072205715 -0.10676572 0.648 10328475
0.07344 -0.10676572 0.648 10262434
0.074904762 -0.10709524 0.65000004 10328746
0.076142862 -0.10709524 0.65000004 10396058
0.077142857 -0.10676572 0.648 8357002
0.078619048 -0.10709524 0.65000004 6315601
0.079857148 -0.10709524 0.65000004 7367192
0.081095241 -0.10709524 0.65000004 8484407
0.082333334 -0.10709524 0.65000004 8680022
0.083571434 -0.10709524 0.65000004 8875104
0.084940001 -0.10726 0.65100002 8285803
0.086312376 -0.10742477 0.65200001 7695935
0.087554283 -0.10742477 0.65200001 5925396
0.088796191 -0.10742477 0.65200001 4154925
0.090038098 -0.10742477 0.65200001 4417607
0.091420002 -0.10758953 0.65300006 4680255
0.09266381 -0.10758953 0.65300006 4483640
0.094195247 -0.10791905 0.65500003 4286762
0.095442861 -0.10791905 0.65500003 4285981
0.096838094 -0.10808381 0.65600002 4285231
0.098087624 -0.10808381 0.65600002 4482625
0.099337146 -0.10808381 0.65600002 4614459
0.10058667 -0.10808381 0.65600002 4811318
0.10183619 -0.10808381 0.65600002 5008437
0.10292857 -0.10791905 0.65500003 4811316
0.10417619 -0.10791905 0.65500003 4614720
0.10542382 -0.10791905 0.65500003 4482893
0.10667143 -0.10791905 0.65500003 4350257
0.10791905 -0.10791905 0.65500003 4022293
0.10916667 -0.10791905 0.65500003 3693849
0.11075143 -0.10824858 0.65700001 3163166
0.11217334 -0.10841334 0.65800005 2633753
0.11377143 -0.10874286 0.66000003 1711125
0.11537715 -0.10907239 0.66200006 857104
0.11681429 -0.10923715 0.66300005 1185292
0.11843333 -0.10956667 0.66500002 1512974
0.11988 -0.10973143 0.66600001 1644816
0.12169429 -0.11022572 0.66900003 1841421
0.12352001 -0.11072001 0.67200005 1317642
0.1248 -0.11072001 0.67200005 794126
0.12608001 -0.11072001 0.67200005 595474
0.016166667 -0.11058 0.67900002 6651264
0.01746 -0.11058 0.67900002 10602677
0.018725716 -0.11041714 0.67800003 13565674
0.020017143 -0.11041714 0.67800003 16578527
0.021245716 -0.11009143 0.67600006 14270933
0.022533335 -0.11009143 0.67600006 11971046
0.023820955 -0.11009143 0.67600006 14351096
0.025071429 -0.10992857 0.67500001 16711419
0.026357144 -0.10992857 0.67500001 16711422
0.027601905 -0.10976572 0.67400002 16711422
0.028800001 -0.10944001 0.67200005 16580350
0.030035239 -0.10927714 0.671 16514813
0.031266667 -0.10911428 0.67000002 16514813
0.032494288 -0.10895143 0.66900003 16579578
0.03366762 -0.10862572 0.66700006 16382456
0.034833334 -0.1083 0.66500002 16185333
0.035991434 -0.10797429 0.66300005 15529714
0.037198097 -0.10781144 0.66200006 14934760
0.038400952 -0.10764857 0.66100001 14277087
0.0396 -0.10748572 0.66000003 13686749
0.040733337 -0.10716 0.65800005 13686235
0.041986667 -0.10716 0.65800005 13682877
0.043240003 -0.10716 0.65800005 10527136
0.044425715 -0.10699714 0.65700001 7371666
0.04567714 -0.10699714 0.65700001 8738180
0.046785716 -0.10667143 0.65500003 10187643
0.048033334 -0.10667143 0.65500003 10522994
0.049130481 -0.10634572 0.65300006 10850161
0.050374292 -0.10634572 0.65300006 10589296
0.051618099 -0.10634572 0.65300006 10389090
0.05286191 -0.10634572 0.65300006 8144981
0.054105718 -0.10634572 0.65300006 5990518
0.05526476 -0.10618286 0.65200001 8160664
0.056506667 -0.10618286 0.65200001 10328737
0.057748571 -0.10618286 0.65200001 10792874
0.058990479 -0.10618286 0.65200001 11251882
0.060140003 -0.10602 0.65100002 11185578
0.061285719 -0.10585715 0.65000004 11119784
0.062523812 -0.10585715 0.65000004 10922663
0.063761905 -0.10585715 0.65000004 10790829
0.064999998 -0.10585715 0.65000004 10659252
0.066238098 -0.10585715 0.65000004 10593196
0.067268573 -0.10553142 0.648 10592420
0.068502858 -0.10553142 0.648 10592415
0.069737144 -0.10553142 0.648 10461594
0.070971422 -0.10553142 0.648 10329498
0.072428577 -0.10585715 0.65000004 10262938
0.073666669 -0.10585715 0.65000004 10197660
0.074904762 -0.10585715 0.65000004 10197918
0.076142862 -0.10585715 0.65000004 10196099
0.077142857 -0.10553142 0.648 7825512
0.078619048 -0.10585715 0.65000004 5462352
0.079857148 -0.10585715 0.65000004 7172920
0.081095241 -0.10585715 0.65000004 8877383
0.082460001 -0.10602 0.65100002 8941655
0.083700001 -0.10602 0.65100002 9072477
0.084940001 -0.10602 0.65100002 8547938
0.086312376 -0.10618286 0.65200001 8088394
0.087554283 -0.10618286 0.65200001 6117683
0.088796191 -0.10618286 0.65200001 4219965
0.090038098 -0.10618286 0.65200001 4548680
0.091420002 -0.10634572 0.65300006 4876607
0.092947617 -0.10667143 0.65500003 4614966
0.094195247 -0.10667143 0.65500003 4417326
0.095588572 -0.10683428 0.65600002 4285479
0.096985713 -0.10699714 0.65700001 4219962
0.098237142 -0.10699714 0.65700001 4416590
0.099337146 -0.10683428 0.65600002 4613699
0.10058667 -0.10683428 0.65600002 4810808
0.10183619 -0.10683428 0.65600002 5072946
0.10308572 -0.10683428 0.65600002 4876589
0.10433524 -0.10683428 0.65600002 4679990
0.10558476 -0.10683428 0.65600002 4614464
0.10667143 -0.10667143 0.65500003 4546856
0.10808381 -0.10683428 0.65600002 4219153
0.10933334 -0.10683428 0.65600002 3888664
0.11092001 -0.10716 0.65800005 3294495
0.11217334 -0.10716 0.65800005 2701854
0.11377143 -0.10748572 0.66000003 1581598
0.11537715 -0.10781144 0.66200006 463893
0.11681429 -0.10797429 0.66300005 1054221
0.11843333 -0.1083 0.66500002 1710351
0.12006001 -0.10862572 0.66700006 2039057
0.12169429 -0.10895143 0.66900003 2365199
0.1233362 -0.10927714 0.671 1709325
0.1248 -0.10944001 0.67200005 1053963
0.12608001 -0.10944001 0.67200005 660745
0.016190477 -0.10944761 0.68000001 7045007
0.017485715 -0.10944761 0.68000001 11130812
0.018753333 -0.10928667 0.67900002 13695722
0.020017143 -0.10912572 0.67800003 16315361
0.021308571 -0.10912572 0.67800003 14274520
0.022600001 -0.10912572 0.67800003 12297701
0.023820955 -0.10880382 0.67600006 14409202
0.025071429 -0.10864286 0.67500001 16514808
0.026357144 -0.10864286 0.67500001 16580350
0.027601905 -0.10848191 0.67400002 16711422
0.028800001 -0.10816 0.67200005 16580350
0.030035239 -0.10799905 0.671 16514813
0.031266667 -0.10783809 0.67000002 16382972
0.032397144 -0.10735524 0.66700006 16250363
0.03366762 -0.10735524 0.66700006 16120314
0.034833334 -0.10703333 0.66500002 15990261
0.035991434 -0.10671143 0.66300005 15396593
0.037198097 -0.10655048 0.66200006 14803946
0.038400952 -0.10638952 0.66100001 14343140
0.0396 -0.10622857 0.66000003 13883614
0.040857144 -0.10622857 0.66000003 12373465
0.041986667 -0.10590667 0.65800005 10929061
0.043240003 -0.10590667 0.65800005 9074802
0.044493336 -0.10590667 0.65800005 7211652
0.04567714 -0.10574571 0.65700001 8877974
0.046857145 -0.10558476 0.65600002 10596485
0.048033334 -0.10542382 0.65500003 10588277
0.049280953 -0.10542382 0.65500003 10588016
0.050374292 -0.10510191 0.65300006 10458220
0.051618099 -0.10510191 0.65300006 10328420
0.05286191 -0.10510191 0.65300006 9135196
0.054022856 -0.10494096 0.65200001 7952473
0.05526476 -0.10494096 0.65200001 8151895
0.056506667 -0.10494096 0.65200001 8351609
0.057660002 -0.10478 0.65100002 8818844
0.058900002 -0.10478 0.65100002 9351590
0.060140003 -0.10478 0.65100002 9939889
0.061285719 -0.10461906 0.65000004 10529966
0.062523812 -0.10461906 0.65000004 10660524
0.063761905 -0.10461906 0.65000004 10791086
0.064999998 -0.10461906 0.65000004 10724784
0.066238098 -0.10461906 0.65000004 10658474
0.067476198 -0.10461906 0.65000004 10592677
0.068714283 -0.10461906 0.65000004 10527133
0.069952384 -0.10461906 0.65000004 10461590
0.071190484 -0.10461906 0.65000004 10461847
0.072428577 -0.10461906 0.65000004 9936537
0.073666669 -0.10461906 0.65000004 9408917
0.074904762 -0.10461906 0.65000004 8948882
0.076142862 -0.10461906 0.65000004 8423532
0.077380955 -0.10461906 0.65000004 7430983
0.078619048 -0.10461906 0.65000004 6509647
0.079857148 -0.10461906 0.65000004 7565656
0.081095241 -0.10461906 0.65000004 8680536
0.082460001 -0.10478 0.65100002 8745817
0.083700001 -0.10478 0.65100002 8745817
0.085070483 -0.10494096 0.65200001 8481370
0.086312376 -0.10494096 0.65200001 8218966
0.087554283 -0.10494096 0.65200001 6317650
0.088932388 -0.10510191 0.65300006 4481870
0.090176195 -0.10510191 0.65300006 4613450
0.091700003 -0.10542382 0.65500003 4679487
0.092947617 -0.10542382 0.65500003 4548149
0.094339043 -0.10558476 0.65600002 4351539
0.095588572 -0.10558476 0.65600002 4219441
0.096985713 -0.10574571 0.65700001 4088390
0.098237142 -0.10574571 0.65700001 4285787
0.099488571 -0.10574571 0.65700001 4416842
0.10074 -0.10574571 0.65700001 4679226
0.10199143 -0.10574571 0.65700001 4941872
0.10324285 -0.10574571 0.65700001 4745255
0.10449429 -0.10574571 0.65700001 4613421
0.10558476 -0.10558476 0.65600002 4481843
0.10683428 -0.10558476 0.65600002 4350240
0.10824858 -0.10574571 0.65700001 4087309
0.1095 -0.10574571 0.65700001 3821591
0.11092001 -0.10590667 0.65800005 3229217
0.11217334 -0.10590667 0.65800005 2638884
0.11377143 -0.10622857 0.66000003 1711143
0.11520286 -0.10638952 0.66100001 857370
0.1166381 -0.10655048 0.66200006 1185806
0.11843333 -0.10703333 0.66500002 1580560
0.12042 -0.10767715 0.66900003 1777426
0.12187619 -0.10783809 0.67000002 1971473
0.1233362 -0.10799905 0.671 1512720
0.12461428 -0.10799905 0.671 1053960
0.12589237 -0.10799905 0.671 661505
0.016190477 -0.10815237 0.68000001 7438755
0.017485715 -0.10815237 0.68000001 11656390
0.018753333 -0.10799333 0.67900002 13891561
0.020017143 -0.10783429 0.67800003 16117477
0.021308571 -0.10783429 0.67800003 14343904
0.022600001 -0.10783429 0.67800003 12627680
0.023820955 -0.1075162 0.67600006 14467552
0.025071429 -0.10735714 0.67500001 16382959
0.026357144 -0.10735714 0.67500001 16514814
0.027601905 -0.1071981 0.67400002 16711421
0.028800001 -0.10688 0.67200005 16579837
0.030035239 -0.10672095 0.671 16514556
0.031266667 -0.10656191 0.67000002 16251387
0.032494288 -0.10640287 0.66900003 15988217
0.03366762 -0.10608477 0.66700006 15921400
0.034885716 -0.10592572 0.66600001 15858162
0.035991434 -0.10544858 0.66300005 15263467
0.037198097 -0.10528953 0.66200006 14672099
0.038400952 -0.10513048 0.66100001 14409435
0.0396 -0.10497143 0.66000003 14143173
0.040857144 -0.10497143 0.66000003 11126448
0.041986667 -0.10465334 0.65800005 8161930
0.043240003 -0.10465334 0.65800005 7622500
0.044493336 -0.10465334 0.65800005 7173240
0.04567714 -0.10449429 0.65700001 9083276
0.046857145 -0.10433524 0.65600002 10982530
0.048033334 -0.10417619 0.65500003 10653815
0.049280953 -0.10417619 0.65500003 10325362
0.050374292 -0.10385811 0.65300006 10261612
0.051618099 -0.10385811 0.65300006 10261603
0.05286191 -0.10385811 0.65300006 10125403
0.054022856 -0.10369905 0.65200001 9991262
0.05526476 -0.10369905 0.65200001 8218978
0.056506667 -0.10369905 0.65200001 6450275
0.057660002 -0.10354 0.65100002 6904420
0.058900002 -0.10354 0.65100002 7438975
0.060140003 -0.10354 0.65100002 8694426
0.061285719 -0.10338096 0.65000004 9940904
0.062523812 -0.10338096 0.65000004 10335415
0.063761905 -0.10338096 0.65000004 10793391
0.064999998 -0.10338096 0.65000004 10792615
0.066238098 -0.10338096 0.65000004 10789797
0.067476198 -0.10338096 0.65000004 10593444
0.068714283 -0.10338096 0.65000004 10461341
0.069952384 -0.10338096 0.65000004 10526102
0.071190484 -0.10338096 0.65000004 10657930
0.07254 -0.10354 0.65100002 9675646
0.07378 -0.10354 0.65100002 8679541
0.07502 -0.10354 0.65100002 7690093
0.076142862 -0.10338096 0.65000004 6708064
0.077380955 -0.10338096 0.65000004 7102291
0.078619048 -0.10338096 0.65000004 7563095
0.079857148 -0.10338096 0.65000004 8023899
0.081220008 -0.10354 0.65100002 8548699
0.082460001 -0.10354 0.65100002 8483676
0.083828576 -0.10369905 0.65200001 8482395
0.085070483 -0.10369905 0.65200001 8415066
0.086312376 -0.10369905 0.65200001 8348747
0.087554283 -0.10369905 0.65200001 6578492
0.088932388 -0.10385811 0.65300006 4809025
0.090176195 -0.10385811 0.65300006 4678213
0.091700003 -0.10417619 0.65500003 4547386
0.092947617 -0.10417619 0.65500003 4416559
0.094195247 -0.10417619 0.65500003 4350508
0.095588572 -0.10433524 0.65600002 4153642
0.096985713 -0.10449429 0.65700001 4022328
0.098237142 -0.10449429 0.65700001 4154951
0.099488571 -0.10449429 0.65700001 4285758
0.10074 -0.10449429 0.65700001 4547638
0.10199143 -0.10449429 0.65700001 4875823
0.10324285 -0.10449429 0.65700001 4679464
0.10449429 -0.10449429 0.65700001 4547638
0.10574571 -0.10449429 0.65700001 4351045
0.10699714 -0.10449429 0.65700001 4218667
0.10824858 -0.10449429 0.65700001 3955474
0.1095 -0.10449429 0.65700001 3757589
0.11092001 -0.10465334 0.65800005 3163929
0.11251429 -0.10497143 0.66000003 2573597
0.11377143 -0.10497143 0.66000003 1906465
0.11520286 -0.10513048 0.66100001 1250581
0.1166381 -0.10528953 0.66200006 1383177
0.11843333 -0.10576667 0.66500002 1515028
0.12006001 -0.10608477 0.66700006 1516064
0.12169429 -0.10640287 0.66900003 1579031
0.1233362 -0.10672095 0.671 1317391
0.12461428 -0.10672095 0.671 1119501
0.12589237 -0.10672095 0.671 662540
0.014960953 -0.10732858 0.68300003 3239522
0.016238095 -0.10717143 0.68200004 7639480
0.017485715 -0.10685714 0.68000001 12050896
0.018753333 -0.1067 0.67900002 13886953
0.020046666 -0.1067 0.67900002 15723241
0.021308571 -0.10654286 0.67800003 14674409
0.022600001 -0.10654286 0.67800003 13678556
0.023820955 -0.10622858 0.67600006 13752527
0.025108574 -0.10622858 0.67600006 13826534
0.026396191 -0.10622858 0.67600006 15269630
0.027520001 -0.10560001 0.67200005 16711421
0.028800001 -0.10560001 0.67200005 16514556
0.029990477 -0.10528572 0.67000002 16383227
0.031266667 -0.10528572 0.67000002 16185338
0.032397144 -0.10481429 0.66700006 16054008
0.03366762 -0.10481429 0.66700006 15790839
0.034885716 -0.10465714 0.66600001 15594990
0.036100004 -0.1045 0.66500002 14936294
0.037254289 -0.10418572 0.66300005 14278364
0.038400952 -0.10387143 0.66100001 12702162
0.039659999 -0.10387143 0.66100001 11126188
0.040857144 -0.10371429 0.66000003 9600647
0.041986667 -0.10340001 0.65800005 8137326
0.043240003 -0.10340001 0.65800005 8682326
0.044493336 -0.10340001 0.65800005 9281644
0.04567714 -0.10324285 0.65700001 10000515
0.046857145 -0.10308572 0.65600002 10787710
0.048033334 -0.10292857 0.65500003 10521978
0.049280953 -0.10292857 0.65500003 10259571
0.050374292 -0.10261429 0.65300006 10194285
0.051618099 -0.10261429 0.65300006 10129251
0.05286191 -0.10261429 0.65300006 9998170
0.054105718 -0.10261429 0.65300006 9932643
0.055349529 -0.10261429 0.65300006 8942957
0.056593336 -0.10261429 0.65300006 7957069
0.057748571 -0.10245714 0.65200001 8021293
0.058990479 -0.10245714 0.65200001 8147544
0.060140003 -0.1023 0.65100002 7953540
0.061380003 -0.1023 0.65100002 7759523
0.062619999 -0.1023 0.65100002 7829954
0.063761905 -0.10214286 0.65000004 7900592
0.064999998 -0.10214286 0.65000004 8032927
0.066238098 -0.10214286 0.65000004 8165537
0.067476198 -0.10214286 0.65000004 8099747
0.068714283 -0.10214286 0.65000004 7968413
0.069952384 -0.10214286 0.65000004 8098967
0.071300007 -0.1023 0.65100002 8229501
0.07254 -0.1023 0.65100002 7893092
0.07378 -0.1023 0.65100002 7491414
0.07502 -0.1023 0.65100002 7427144
0.076260008 -0.1023 0.65100002 7363155
0.077380955 -0.10214286 0.65000004 7628895
0.078740001 -0.1023 0.65100002 7892830
0.079980001 -0.1023 0.65100002 8220510
0.081220008 -0.1023 0.65100002 8548447
0.082460001 -0.1023 0.65100002 8482144
0.083828576 -0.10245714 0.65200001 8415837
0.085070483 -0.10245714 0.65200001 8415323
0.086312376 -0.10245714 0.65200001 8417345
0.087554283 -0.10245714 0.65200001 6971431
0.088932388 -0.10261429 0.65300006 5459764
0.090176195 -0.10261429 0.65300006 4807233
0.091700003 -0.10292857 0.65500003 4218677
0.092947617 -0.10292857 0.65500003 4153129
0.094195247 -0.10292857 0.65500003 4087590
0.095588572 -0.10308572 0.65600002 4021795
0.096985713 -0.10324285 0.65700001 3956267
0.098386675 -0.10340001 0.65800005 4021812
0.099640004 -0.10340001 0.65800005 4087603
0.10089334 -0.10340001 0.65800005 4350770
0.10214667 -0.10340001 0.65800005 4678958
0.10340001 -0.10340001 0.65800005 4613162
0.10465334 -0.10340001 0.65800005 4547392
0.10590667 -0.10340001 0.65800005 4417367
0.10716 -0.10340001 0.65800005 4287287
0.10841334 -0.10340001 0.65800005 4087831
0.10966668 -0.10340001 0.65800005 3824916
0.11125715 -0.10371429 0.66000003 3230994
0.11251429 -0.10371429 0.66000003 2705175
0.11377143 -0.10371429 0.66000003 1776412
0.11520286 -0.10387143 0.66100001 857616
0.1166381 -0.10402858 0.66200006 1186308
0.11843333 -0.1045 0.66500002 1446681
0.12006001 -0.10481429 0.66700006 1449518
0.12187619 -0.10528572 0.67000002 1514526
0.1233362 -0.10544286 0.671 1317134
0.1248 -0.10560001 0.67200005 1119762
0.12608001 -0.10560001 0.67200005 660503
0.12868667 -0.1067 0.67900002 201497
0.12998 -0.1067 0.67900002 3021340
0.01368 -0.10618286 0.68400002 4352020
0.014960953 -0.10602762 0.68300003 3238241
0.016261905 -0.10602762 0.68300003 7840430
0.017537145 -0.10587239 0.68200004 12508104
0.018753333 -0.10540666 0.67900002 13951713
0.020046666 -0.10540666 0.67900002 15394023
0.021308571 -0.10525143 0.67800003 15070444
0.022600001 -0.10525143 0.67800003 14731724
0.023891428 -0.10525143 0.67800003 13004972
0.025108574 -0.10494096 0.67600006 11327698
0.026396191 -0.10494096 0.67600006 14024441
0.027520001 -0.10432001 0.67200005 16710395
0.028757142 -0.10416476 0.671 16447485
0.030035239 -0.10416476 0.671 16250620
0.031266667 -0.10400952 0.67000002 16185084
0.032494288 -0.10385429 0.66900003 16120314
0.03366762 -0.10354382 0.66700006 15724536
0.034885716 -0.10338857 0.66600001 15396317
0.036100004 -0.10323334 0.66500002 14674881
0.037254289 -0.10292286 0.66300005 13945005
0.038459051 -0.10276763 0.66200006 10991257
0.039659999 -0.10261238 0.66100001 8091280
0.040857144 -0.10245714 0.66000003 8140680
0.042114288 -0.10245714 0.66000003 8220535
0.043240003 -0.10214667 0.65800005 9807718
0.044493336 -0.10214667 0.65800005 11378806
0.045746669 -0.10214667 0.65800005 10983303
0.046928573 -0.10199143 0.65700001 10588289
0.048106667 -0.10183619 0.65600002 10390139
0.049280953 -0.10168096 0.65500003 10258806
0.050528575 -0.10168096 0.65500003 10127730
0.051776193 -0.10168096 0.65500003 10062439
0.05286191 -0.10137048 0.65300006 9931869
0.054105718 -0.10137048 0.65300006 9866347
0.055349529 -0.10137048 0.65300006 9666937
0.056593336 -0.10137048 0.65300006 9468000
0.057748571 -0.10121524 0.65200001 9138246
0.058990479 -0.10121524 0.65200001 8872283
0.060232379 -0.10121524 0.65200001 7230320
0.06147429 -0.10121524 0.65200001 5662595
0.062619999 -0.10106 0.65100002 5325719
0.063859999 -0.10106 0.65100002 5066883
0.064999998 -0.10090476 0.65000004 5332335
0.066238098 -0.10090476 0.65000004 5594999
0.06758 -0.10106 0.65100002 5529984
0.068714283 -0.10090476 0.65000004 5527154
0.07006 -0.10106 0.65100002 5655653
0.071300007 -0.10106 0.65100002 5849438
0.07254 -0.10106 0.65100002 6108760
0.073893331 -0.10121524 0.65200001 6382160
0.07502 -0.10106 0.65100002 7169097
0.076260008 -0.10106 0.65100002 8022609
0.077500001 -0.10106 0.65100002 8089945
0.078740001 -0.10106 0.65100002 8220506
0.079980001 -0.10106 0.65100002 8417372
0.081220008 -0.10106 0.65100002 8613219
0.082460001 -0.10106 0.65100002 8481387
0.083828576 -0.10121524 0.65200001 8350050
0.085070483 -0.10121524 0.65200001 8415577
0.086444765 -0.10137048 0.65300006 8545348
0.087554283 -0.10121524 0.65200001 7364399
0.088932388 -0.10137048 0.65300006 6183220
0.090176195 -0.10137048 0.65300006 5002041
0.091420002 -0.10137048 0.65300006 3889455
0.092947617 -0.10168096 0.65500003 3889445
0.094339043 -0.10183619 0.65600002 3889698
0.095588572 -0.10183619 0.65600002 3889951
0.096985713 -0.10199143 0.65700001 3889956
0.098386675 -0.10214667 0.65800005 3889962
0.099640004 -0.10214667 0.65800005 3890986
0.10089334 -0.10214667 0.65800005 4219690
0.10214667 -0.10214667 0.65800005 4547373
0.10340001 -0.10214667 0.65800005 4547632
0.10465334 -0.10214667 0.65800005 4612924
0.10590667 -0.10214667 0.65800005 4483913
0.10716 -0.10214667 0.65800005 4417583
0.10841334 -0.10214667 0.65800005 4154645
0.10966668 -0.10214667 0.65800005 3955472
0.11125715 -0.10245714 0.66000003 3363596
0.11251429 -0.10245714 0.66000003 2836502
0.11377143 -0.10245714 0.66000003 1646368
0.11520286 -0.10261238 0.66100001 529683
0.1166381 -0.10276763 0.66200006 989447
0.11843333 -0.10323334 0.66500002 1448211
0.11988 -0.10338857 0.66600001 1448479
0.12169429 -0.10385429 0.66900003 1448469
0.1233362 -0.10416476 0.671 1315340
0.12517144 -0.10463049 0.67400002 1184277
0.12720571 -0.10525143 0.67800003 725535
0.12868667 -0.10540666 0.67900002 266536
0.12998 -0.10540666 0.67900002 3019058
0.01368 -0.10488 0.68400002 4482077
0.014960953 -0.10472667 0.68300003 3433825
0.016238095 -0.10457334 0.68200004 8104101
0.017485715 -0.10426667 0.68000001 12834239
0.018753333 -0.10411333 0.67900002 13949402
0.020046666 -0.10411333 0.67900002 15130341
0.021308571 -0.10396 0.67800003 14999024
0.022600001 -0.10396 0.67800003 14867644
0.023891428 -0.10396 0.67800003 13552009
0.025108574 -0.10365334 0.67600006 12171198
0.026396191 -0.10365334 0.67600006 12899828
0.027520001 -0.10304001 0.67200005 13628409
0.028757142 -0.10288666 0.671 14481662
0.029990477 -0.10273334 0.67000002 15400702
