# .PCD v0.7 - Point Cloud Data file format
VERSION 0.7
FIELDS x y z rgba
SIZE 4 4 4 4
TYPE F F F U
COUNT 1 1 1 1
WIDTH 1140
HEIGHT 1
VIEWPOINT 0 0 0 1 0 0 0
POINTS 1140
DATA ascii
-0.26461813 0.0904181 0.87100005 7629140
-0.26295906 0.0904181 0.87100005 8021839
-0.26130003 0.0904181 0.87100005 7955274
-0.25964096 0.0904181 0.87100005 7890016
-0.25798193 0.0904181 0.87100005 8087158
-0.25691146 0.090625718 0.87300003 8285285
-0.2546638 0.0904181 0.87100005 8155219
-0.25358573 0.090625718 0.87300003 8086351
-0.25192288 0.090625718 0.87300003 7824202
-0.25083336 0.090833336 0.87500006 7561027
-0.24859715 0.090625718 0.87300003 7427388
-0.24693429 0.090625718 0.87300003 7295800
-0.24527143 0.090625718 0.87300003 7492148
-0.24360856 0.090625718 0.87300003 7688509
-0.24194573 0.090625718 0.87300003 7426375
-0.24028286 0.090625718 0.87300003 7164230
-0.23916668 0.090833336 0.87500006 7100741
-0.23750001 0.090833336 0.87500006 7099959
-0.23583335 0.090833336 0.87500006 7099178
-0.23416668 0.090833336 0.87500006 7099438
-0.23329714 0.091144763 0.87800002 6903091
-0.23162477 0.091144763 0.87800002 6770994
-0.22916667 0.090833336 0.87500006 6638896
-0.22750001 0.090833336 0.87500006 6573097
-0.22660762 0.091144763 0.87800002 6310946
-0.22493525 0.091144763 0.87800002 6113813
-0.22326286 0.091144763 0.87800002 5785609
-0.22083335 0.090833336 0.87500006 5455626
-0.21866572 0.090625718 0.87300003 4930059
-0.21700287 0.090625718 0.87300003 4404244
-0.21657334 0.091144763 0.87800002 4796189
-0.21416669 0.090833336 0.87500006 5189154
-0.31144288 0.08932858 0.84500003 8681568
-0.30983335 0.08932858 0.84500003 8883038
-0.30822381 0.08932858 0.84500003 7895901
-0.30661428 0.08932858 0.84500003 6908773
-0.30428287 0.089117147 0.84300005 6707054
-0.30267718 0.089117147 0.84300005 6505299
-0.30178571 0.08932858 0.84500003 5586232
-0.30017617 0.08932858 0.84500003 4732976
-0.2985667 0.08932858 0.84500003 4927529
-0.29695717 0.08932858 0.84500003 5188404
-0.2963962 0.089645721 0.84800005 5319743
-0.29617143 0.090068579 0.85200006 5451329
-0.29524001 0.090280004 0.85400003 5454147
-0.29361334 0.090280004 0.85400003 5520451
-0.29267049 0.090491436 0.85600007 5848643
-0.29172 0.090702862 0.85800004 6177091
-0.29008573 0.090702862 0.85800004 6047811
-0.28845143 0.090702862 0.85800004 5920317
-0.28681716 0.090702862 0.85800004 6312248
-0.28584763 0.090914287 0.86000001 6638657
-0.28420952 0.090914287 0.86000001 6836042
-0.28257143 0.090914287 0.86000001 7034430
-0.28093335 0.090914287 0.86000001 7560243
-0.27994478 0.091125719 0.86200005 8151889
-0.27927145 0.091442861 0.86500007 8219503
-0.27826571 0.091654293 0.86700004 8287328
-0.27725241 0.091865711 0.86900002 8287058
-0.27623147 0.092077151 0.87100005 8352343
-0.2745724 0.092077151 0.87100005 8548444
-0.27228665 0.091865711 0.86900002 8810074
-0.27063143 0.091865711 0.86900002 8481881
-0.26897621 0.091865711 0.86900002 8152135
-0.2679362 0.092077151 0.87100005 7890485
-0.26566571 0.091865711 0.86900002 7629124
-0.26401046 0.091865711 0.86900002 7825235
-0.26235524 0.091865711 0.86900002 7956043
-0.26070002 0.091865711 0.86900002 7889219
-0.25904477 0.091865711 0.86900002 7822692
-0.25798193 0.092077151 0.87100005 7890566
-0.25632286 0.092077151 0.87100005 7958640
-0.2546638 0.092077151 0.87100005 7891802
-0.25300479 0.092077151 0.87100005 7825236
-0.25192288 0.092288569 0.87300003 7628110
-0.25026 0.092288569 0.87300003 7430475
-0.24859715 0.092288569 0.87300003 7296840
-0.24693429 0.092288569 0.87300003 7230529
-0.24527143 0.092288569 0.87300003 7295803
-0.24360856 0.092288569 0.87300003 7426373
-0.24194573 0.092288569 0.87300003 7295568
-0.24083334 0.092500009 0.87500006 7165261
-0.23916668 0.092500009 0.87500006 7166026
-0.23750001 0.092500009 0.87500006 7231822
-0.23583335 0.092500009 0.87500006 7231827
-0.23496953 0.092817143 0.87800002 7232069
-0.23329714 0.092817143 0.87800002 7100727
-0.23162477 0.092817143 0.87800002 7034931
-0.22995239 0.092817143 0.87800002 6903600
-0.22827999 0.092817143 0.87800002 6772269
-0.22660762 0.092817143 0.87800002 6575146
-0.22493525 0.092817143 0.87800002 6378262
-0.22326286 0.092817143 0.87800002 5982978
-0.22159047 0.092817143 0.87800002 5587971
-0.21991809 0.092817143 0.87800002 5125892
-0.21824571 0.092817143 0.87800002 4663825
-0.21657334 0.092817143 0.87800002 4862750
-0.21490096 0.092817143 0.87800002 5125155
-0.31144288 0.090938091 0.84500003 9008732
-0.30983335 0.090938091 0.84500003 8741193
-0.30822381 0.090938091 0.84500003 6769975
-0.30588859 0.090722859 0.84300005 4799297
-0.30428287 0.090722859 0.84300005 4467020
-0.30267718 0.090722859 0.84300005 4204609
-0.30107147 0.090722859 0.84300005 4007990
-0.30017617 0.090938091 0.84500003 3814960
-0.29786003 0.090722859 0.84300005 4470057
-0.29695717 0.090938091 0.84500003 5190959
-0.29709524 0.091476195 0.85000002 5453365
-0.29756194 0.092121907 0.85600007 5716279
-0.29593146 0.092121907 0.85600007 5389370
-0.29430097 0.092121907 0.85600007 5062194
-0.29335427 0.092337146 0.85800004 5455915
-0.29172 0.092337146 0.85800004 5914938
-0.29076192 0.092552379 0.86000001 5783880
-0.28912383 0.092552379 0.86000001 5657154
-0.28748572 0.092552379 0.86000001 6247227
-0.28584763 0.092552379 0.86000001 6901822
-0.28420952 0.092552379 0.86000001 7360066
-0.28257143 0.092552379 0.86000001 7887689
-0.28158668 0.092767626 0.86200005 8224336
-0.27994478 0.092767626 0.86200005 8617309
-0.27927145 0.093090482 0.86500007 8551529
-0.27826571 0.093305722 0.86700004 8485720
-0.27725241 0.093520947 0.86900002 8485447
-0.27559716 0.093520947 0.86900002 8484436
-0.2739419 0.093520947 0.86900002 8483937
-0.27228665 0.093520947 0.86900002 8548193
-0.27000856 0.093305722 0.86700004 8417121
-0.26835716 0.093305722 0.86700004 8285268
-0.26732096 0.093520947 0.86900002 8153415
-0.26566571 0.093520947 0.86900002 8022861
-0.26401046 0.093520947 0.86900002 7958099
-0.26235524 0.093520947 0.86900002 7957070
-0.26070002 0.093520947 0.86900002 7823176
-0.25904477 0.093520947 0.86900002 7758430
-0.25738952 0.093520947 0.86900002 7693940
-0.25573426 0.093520947 0.86900002 7628388
-0.25407907 0.093520947 0.86900002 7628373
-0.25300479 0.093736194 0.87100005 7628627
-0.25076857 0.093520947 0.86900002 7432273
-0.24911334 0.093520947 0.86900002 7299150
-0.24802764 0.093736194 0.87100005 7232074
-0.24636859 0.093736194 0.87100005 7165254
-0.24470952 0.093736194 0.87100005 7164994
-0.24305049 0.093736194 0.87100005 7165004
-0.24139144 0.093736194 0.87100005 7165015
-0.24028286 0.093951426 0.87300003 7165523
-0.23916668 0.094166674 0.87500006 7297103
-0.2383143 0.09448953 0.87800002 7428172
-0.2366419 0.09448953 0.87800002 7428170
-0.23496953 0.09448953 0.87800002 7428417
-0.23329714 0.09448953 0.87800002 7363129
-0.23162477 0.09448953 0.87800002 7297339
-0.22995239 0.09448953 0.87800002 7100732
-0.22827999 0.09448953 0.87800002 6969391
-0.22660762 0.09448953 0.87800002 6774562
-0.22493525 0.09448953 0.87800002 6642706
-0.22326286 0.09448953 0.87800002 6183426
-0.22159047 0.09448953 0.87800002 5785606
-0.21991809 0.09448953 0.87800002 5381642
-0.21824571 0.09448953 0.87800002 4991760
-0.21657334 0.09448953 0.87800002 4995094
-0.21490096 0.09448953 0.87800002 5060121
-0.30749431 0.092328578 0.84300005 5914641
-0.30588859 0.092328578 0.84300005 4925214
-0.30428287 0.092328578 0.84300005 4795947
-0.30267718 0.092328578 0.84300005 4666416
-0.30178571 0.092547618 0.84500003 4535349
-0.30017617 0.092547618 0.84500003 4404271
-0.2985667 0.092547618 0.84500003 4863018
-0.29871428 0.093095236 0.85000002 5323307
-0.29779431 0.09331429 0.85200006 5454380
-0.29825714 0.093971431 0.85800004 5585710
-0.29662287 0.093971431 0.85800004 5520945
-0.29498857 0.093971431 0.85800004 5456930
-0.29335427 0.093971431 0.85800004 5784084
-0.2924 0.094190478 0.86000001 6111537
-0.29076192 0.094190478 0.86000001 6178894
-0.28912383 0.094190478 0.86000001 6246214
-0.28748572 0.094190478 0.86000001 6772287
-0.28584763 0.094190478 0.86000001 7362364
-0.28420952 0.094190478 0.86000001 7822138
-0.28322858 0.094409525 0.86200005 8216660
-0.28158668 0.094409525 0.86200005 8617838
-0.27994478 0.094409525 0.86200005 9011561
-0.27927145 0.094738103 0.86500007 8813412
-0.27762383 0.094738103 0.86500007 8616016
-0.27661428 0.094957143 0.86700004 8615997
-0.27496287 0.094957143 0.86700004 8681553
-0.27331144 0.094957143 0.86700004 8615270
-0.27166 0.094957143 0.86700004 8613991
-0.27000856 0.094957143 0.86700004 8679529
-0.26773813 0.094738103 0.86500007 8745313
-0.26670572 0.094957143 0.86700004 8483417
-0.26505429 0.094957143 0.86700004 8221526
-0.26340288 0.094957143 0.86700004 8089940
-0.26175144 0.094957143 0.86700004 8023889
-0.25950003 0.094738103 0.86500007 7891790
-0.25785241 0.094738103 0.86500007 7825496
-0.25620478 0.094738103 0.86500007 7693922
-0.25514573 0.094957143 0.86700004 7562585
-0.25349429 0.094957143 0.86700004 7496784
-0.25184289 0.094957143 0.86700004 7495762
-0.25076857 0.095176198 0.86900002 7298901
-0.24911334 0.095176198 0.86900002 7102289
-0.24802764 0.095395245 0.87100005 6970189
-0.24636859 0.095395245 0.87100005 6838091
-0.24470952 0.095395245 0.87100005 6837577
-0.24305049 0.095395245 0.87100005 6837588
-0.24139144 0.095395245 0.87100005 6903391
-0.24028286 0.095614292 0.87300003 7034713
-0.23916668 0.095833339 0.87500006 7231828
-0.2383143 0.096161902 0.87800002 7428682
-0.2366419 0.096161902 0.87800002 7494721
-0.23550478 0.096380956 0.88000005 7560766
-0.23382859 0.096380956 0.88000005 7690812
-0.23162477 0.096161902 0.87800002 7821890
-0.22995239 0.096161902 0.87800002 7428681
-0.22827999 0.096161902 0.87800002 7035697
-0.22660762 0.096161902 0.87800002 6643226
-0.22493525 0.096161902 0.87800002 6315278
-0.22326286 0.096161902 0.87800002 5854467
-0.22159047 0.096161902 0.87800002 5393674
-0.21991809 0.096161902 0.87800002 5122065
-0.21824571 0.096161902 0.87800002 4860944
-0.21657334 0.096161902 0.87800002 4928783
-0.21490096 0.096161902 0.87800002 5061135
-0.30749431 0.09393429 0.84300005 5124897
-0.30588859 0.09393429 0.84300005 5124899
-0.30428287 0.09393429 0.84300005 5125158
-0.30339524 0.094157144 0.84500003 5125418
-0.30285716 0.09449143 0.84800005 5060397
-0.3012419 0.09449143 0.84800005 5059369
-0.29962671 0.09449143 0.84800005 5256228
-0.30012 0.095160007 0.85400003 5518378
-0.29989144 0.095605716 0.85800004 5452849
-0.29895237 0.09582857 0.86000001 5453363
-0.29731429 0.09582857 0.86000001 5652533
-0.29567617 0.09582857 0.86000001 5916716
-0.29403809 0.09582857 0.86000001 6113571
-0.29308 0.096051432 0.86200005 6377018
-0.2914381 0.096051432 0.86200005 6574929
-0.28912383 0.09582857 0.86000001 6837837
-0.28748572 0.09582857 0.86000001 7363145
-0.28584763 0.09582857 0.86000001 7887424
-0.28420952 0.09582857 0.86000001 8223800
-0.28322858 0.096051432 0.86200005 8617549
-0.28158668 0.096051432 0.86200005 9011299
-0.27994478 0.096051432 0.86200005 9469796
-0.27830288 0.096051432 0.86200005 9140837
-0.27762383 0.096385725 0.86500007 8812641
-0.27597621 0.096385725 0.86500007 8812894
-0.27432859 0.096385725 0.86500007 8877923
-0.27268097 0.096385725 0.86500007 8746856
-0.27009335 0.096051432 0.86200005 8681070
-0.26845145 0.096051432 0.86200005 8942964
-0.26680955 0.096051432 0.86200005 9270634
-0.26516765 0.096051432 0.86200005 8811871
-0.26444286 0.096385725 0.86500007 8418394
-0.26279527 0.096385725 0.86500007 8287316
-0.26114762 0.096385725 0.86500007 8154451
-0.25950003 0.096385725 0.86500007 8023890
-0.25785241 0.096385725 0.86500007 7891288
-0.25620478 0.096385725 0.86500007 7694175
-0.25455716 0.096385725 0.86500007 7497049
-0.25290954 0.096385725 0.86500007 7430996
-0.25126192 0.096385725 0.86500007 7364693
-0.25019145 0.096608572 0.86700004 7102039
-0.24911334 0.096831433 0.86900002 6905168
-0.24745809 0.096831433 0.86900002 6708298
-0.24580286 0.096831433 0.86900002 6575433
-0.24414763 0.096831433 0.86900002 6575688
-0.24305049 0.097054288 0.87100005 6575949
-0.24139144 0.097054288 0.87100005 6707538
-0.24028286 0.09727715 0.87300003 6904143
-0.23916668 0.097500004 0.87500006 7166540
-0.23750001 0.097500004 0.87500006 7494218
-0.2366419 0.097834289 0.87800002 7626312
-0.23496953 0.097834289 0.87800002 7756869
-0.23382859 0.098057151 0.88000005 8084291
-0.23215239 0.098057151 0.88000005 8411980
-0.22995239 0.097834289 0.87800002 7756886
-0.22880001 0.098057151 0.88000005 7167281
-0.22660762 0.097834289 0.87800002 6577677
-0.22493525 0.097834289 0.87800002 5984010
-0.22377145 0.098057151 0.88000005 5521415
-0.22159047 0.097834289 0.87800002 5060872
-0.22041906 0.098057151 0.88000005 4928009
-0.21824571 0.097834289 0.87800002 4796942
-0.21706668 0.098057151 0.88000005 4928276
-0.21539049 0.098057151 0.88000005 5059351
-0.30822381 0.095766664 0.84500003 5191473
-0.30661428 0.095766664 0.84500003 5191977
-0.30428287 0.095540009 0.84300005 5257762
-0.30339524 0.095766664 0.84500003 5258020
-0.30357143 0.096333332 0.85000002 5322790
-0.30195239 0.096333332 0.85000002 5386786
-0.30103999 0.096560009 0.85200006 5584159
-0.30082285 0.097013339 0.85600007 5783338
-0.29989144 0.097240001 0.85800004 5781814
-0.29895237 0.09746667 0.86000001 5780023
-0.29731429 0.09746667 0.86000001 6047033
-0.29567617 0.09746667 0.86000001 6310966
-0.29403809 0.09746667 0.86000001 6574131
-0.29308 0.097693332 0.86200005 6837315
-0.2914381 0.097693332 0.86200005 7034452
-0.2897962 0.097693332 0.86200005 7166292
-0.28748572 0.09746667 0.86000001 7560020
-0.28584763 0.09746667 0.86000001 7953989
-0.28420952 0.09746667 0.86000001 8221494
-0.28322858 0.097693332 0.86200005 8486727
-0.28158668 0.097693332 0.86200005 8683097
-0.27994478 0.097693332 0.86200005 8879455
-0.27830288 0.097693332 0.86200005 8812902
-0.27666098 0.097693332 0.86200005 8746866
-0.27501905 0.097693332 0.86200005 8943743
-0.27337715 0.097693332 0.86200005 9205365
-0.27173525 0.097693332 0.86200005 8942955
-0.27009335 0.097693332 0.86200005 8746101
-0.26845145 0.097693332 0.86200005 8876928
-0.26680955 0.097693332 0.86200005 9007987
-0.26516765 0.097693332 0.86200005 8680806
-0.26352572 0.097693332 0.86200005 8418653
-0.26188383 0.097693332 0.86200005 8221269
-0.26024193 0.097693332 0.86200005 8088661
-0.25860003 0.097693332 0.86200005 7957334
-0.25695813 0.097693332 0.86200005 7826009
-0.2553162 0.097693332 0.86200005 7627612
-0.2536743 0.097693332 0.86200005 7494746
-0.25290954 0.098033339 0.86500007 7429721
-0.25126192 0.098033339 0.86500007 7364697
-0.25019145 0.09826 0.86700004 6839129
-0.24854001 0.09826 0.86700004 6379600
-0.24745809 0.098486669 0.86900002 6378823
-0.24580286 0.098486669 0.86900002 6378311
-0.24414763 0.098486669 0.86900002 6246727
-0.24249238 0.098486669 0.86900002 6180678
-0.24139144 0.098713338 0.87100005 6379334
-0.23973238 0.098713338 0.87100005 6643525
-0.23862001 0.09894 0.87300003 6837829
-0.23750001 0.099166676 0.87500006 7034442
-0.2366419 0.099506669 0.87800002 7296336
-0.23496953 0.099506669 0.87800002 7558477
-0.23382859 0.099733338 0.88000005 7822922
-0.23215239 0.099733338 0.88000005 8087382
-0.2304762 0.099733338 0.88000005 7626083
-0.22880001 0.099733338 0.88000005 7102002
-0.22712381 0.099733338 0.88000005 6114561
-0.22544762 0.099733338 0.88000005 5061638
-0.22377145 0.099733338 0.88000005 4862988
-0.22209525 0.099733338 0.88000005 4664582
-0.22041906 0.099733338 0.88000005 4665089
-0.21874286 0.099733338 0.88000005 4665613
-0.21706668 0.099733338 0.88000005 4797466
-0.21539049 0.099733338 0.88000005 4994335
-0.21371429 0.099733338 0.88000005 4993829
-0.30931813 0.097721912 0.84800005 5257006
-0.30770287 0.097721912 0.84800005 5323296
-0.30500478 0.09737619 0.84500003 5389330
-0.30519047 0.097952388 0.85000002 5454362
-0.30428573 0.098182864 0.85200006 5585442
-0.30266288 0.098182864 0.85200006 5716001
-0.30174667 0.098413341 0.85400003 5912352
-0.30082285 0.098643817 0.85600007 6111532
-0.29989144 0.098874293 0.85800004 6111544
-0.29895237 0.099104762 0.86000001 6178368
-0.29731429 0.099104762 0.86000001 6441800
-0.29567617 0.099104762 0.86000001 6771278
-0.29403809 0.099104762 0.86000001 7036244
-0.29308 0.099335246 0.86200005 7364947
-0.2914381 0.099335246 0.86200005 7431506
-0.2897962 0.099335246 0.86200005 7562065
-0.2881543 0.099335246 0.86200005 7823697
-0.28584763 0.099104762 0.86000001 8084551
-0.28420952 0.099104762 0.86000001 8219198
-0.28257143 0.099104762 0.86000001 8416331
-0.28158668 0.099335246 0.86200005 8351320
-0.27994478 0.099335246 0.86200005 8288348
-0.27830288 0.099335246 0.86200005 8484959
-0.27666098 0.099335246 0.86200005 8681831
-0.27501905 0.099335246 0.86200005 9075312
-0.27337715 0.099335246 0.86200005 9534054
-0.27173525 0.099335246 0.86200005 9136477
-0.27009335 0.099335246 0.86200005 8812137
-0.26845145 0.099335246 0.86200005 8745333
-0.26680955 0.099335246 0.86200005 8745835
-0.26516765 0.099335246 0.86200005 8549730
-0.26352572 0.099335246 0.86200005 8417874
-0.26188383 0.099335246 0.86200005 8220739
-0.26024193 0.099335246 0.86200005 8089674
-0.25860003 0.099335246 0.86200005 7890258
-0.25695813 0.099335246 0.86200005 7760215
-0.2553162 0.099335246 0.86200005 7624284
-0.2536743 0.099335246 0.86200005 7494745
-0.25203237 0.099335246 0.86200005 7429206
-0.25039047 0.099335246 0.86200005 7363668
-0.24961431 0.09968096 0.86500007 6641747
-0.24854001 0.099911429 0.86700004 5920321
-0.24745809 0.10014191 0.86900002 6049583
-0.24580286 0.10014191 0.86900002 6245688
-0.24414763 0.10014191 0.86900002 5983042
-0.24249238 0.10014191 0.86900002 5786690
-0.24139144 0.10037239 0.87100005 6112323
-0.23973238 0.10037239 0.87100005 6441798
-0.23807335 0.10037239 0.87100005 6509385
-0.23695715 0.10060286 0.87300003 6574926
-0.23583335 0.10083334 0.87500006 6968148
-0.23496953 0.10117905 0.87800002 7426384
-0.23329714 0.10117905 0.87800002 7627340
-0.23215239 0.10140952 0.88000005 7823949
-0.2304762 0.10140952 0.88000005 7426895
-0.22880001 0.10140952 0.88000005 7099701
-0.22712381 0.10140952 0.88000005 5648923
-0.22544762 0.10140952 0.88000005 4204570
-0.22428 0.10164 0.88200003 4267544
-0.22260001 0.10164 0.88200003 4336659
-0.22092 0.10164 0.88200003 4402189
-0.21874286 0.10140952 0.88000005 4534804
-0.21756001 0.10164 0.88200003 4732700
-0.21636954 0.10187048 0.88400006 4994340
-0.2159 0.10244668 0.88900006 4994093
-0.30931813 0.099337153 0.84800005 5323052
-0.30770287 0.099337153 0.84800005 5389079
-0.30608764 0.099337153 0.84800005 5454594
-0.30519047 0.099571429 0.85000002 5519632
-0.30428573 0.09980572 0.85200006 5716510
-0.30337337 0.10004 0.85400003 5913632
-0.30245334 0.10027429 0.85600007 6176546
-0.30152574 0.10050857 0.85800004 6505262
-0.30059046 0.10074285 0.86000001 6637370
-0.29895237 0.10074285 0.86000001 6769480
-0.29731429 0.10074285 0.86000001 7164503
-0.2963638 0.10097715 0.86200005 7493990
-0.2947219 0.10097715 0.86200005 7364213
-0.29308 0.10097715 0.86200005 7299682
-0.2914381 0.10097715 0.86200005 7234384
-0.2897962 0.10097715 0.86200005 7236431
-0.2881543 0.10097715 0.86200005 7428942
-0.2865124 0.10097715 0.86200005 7690826
-0.28487048 0.10097715 0.86200005 8088902
-0.28322858 0.10097715 0.86200005 8547919
-0.28158668 0.10097715 0.86200005 8417368
-0.27994478 0.10097715 0.86200005 8352856
-0.27830288 0.10097715 0.86200005 8483673
-0.27666098 0.10097715 0.86200005 8680285
-0.27501905 0.10097715 0.86200005 8943201
-0.27337715 0.10097715 0.86200005 9207640
-0.27173525 0.10097715 0.86200005 9010255
-0.27009335 0.10097715 0.86200005 8878428
-0.26845145 0.10097715 0.86200005 8746602
-0.26680955 0.10097715 0.86200005 8615012
-0.26455238 0.10074285 0.86000001 8483679
-0.26352572 0.10097715 0.86200005 8351816
-0.26127619 0.10074285 0.86000001 8286513
-0.26024193 0.10097715 0.86200005 8221760
-0.25860003 0.10097715 0.86200005 8022351
-0.25695813 0.10097715 0.86200005 7891030
-0.2553162 0.10097715 0.86200005 7758429
-0.2536743 0.10097715 0.86200005 7625816
-0.25203237 0.10097715 0.86200005 7494739
-0.25039047 0.10097715 0.86200005 7298128
-0.24961431 0.10132858 0.86500007 6772813
-0.24796668 0.10132858 0.86500007 6313010
-0.24688856 0.10156287 0.86700004 6377239
-0.24523716 0.10156287 0.86700004 6442538
-0.24414763 0.10179714 0.86900002 6245438
-0.24249238 0.10179714 0.86900002 6113855
-0.24083714 0.10179714 0.86900002 6244160
-0.23973238 0.10203143 0.87100005 6439238
-0.23807335 0.10203143 0.87100005 6311501
-0.23695715 0.10226572 0.87300003 6246482
-0.23529428 0.10226572 0.87300003 6311768
-0.23416668 0.10250001 0.87500006 6377043
-0.23329714 0.10285143 0.87800002 6706766
-0.23215239 0.10308572 0.88000005 6970948
-0.2304762 0.10308572 0.88000005 6835003
-0.22932 0.10332 0.88200003 6769720
-0.22712381 0.10308572 0.88000005 5385782
-0.22596 0.10332 0.88200003 4007725
-0.22428 0.10332 0.88200003 4008229
-0.22260001 0.10332 0.88200003 4074527
-0.22092 0.10332 0.88200003 4206106
-0.21924001 0.10332 0.88200003 4403996
-0.21805334 0.10355429 0.88400006 4600350
-0.21710381 0.10390572 0.88700002 4862250
-0.2171143 0.10472572 0.89400005 4861494
-0.31166667 0.10119048 0.85000002 5454896
-0.31004763 0.10119048 0.85000002 5454379
-0.30842859 0.10119048 0.85000002 5454881
-0.30680951 0.10119048 0.85000002 5520920
-0.30590859 0.10142858 0.85200006 5652253
-0.30500001 0.10166667 0.85400003 5914913
-0.30337337 0.10166667 0.85400003 6177057
-0.30245334 0.10190476 0.85600007 6504737
-0.30082285 0.10190476 0.85600007 6899497
-0.30059046 0.10238095 0.86000001 7163186
-0.29895237 0.10238095 0.86000001 7428158
-0.29800573 0.10261905 0.86200005 7824203
-0.2963638 0.10261905 0.86200005 8282456
-0.2947219 0.10261905 0.86200005 7757668
-0.29308 0.10261905 0.86200005 7232855
-0.2914381 0.10261905 0.86200005 7101513
-0.2897962 0.10261905 0.86200005 6969676
-0.2881543 0.10261905 0.86200005 7099983
-0.2865124 0.10261905 0.86200005 7296845
-0.28487048 0.10261905 0.86200005 7958859
-0.28322858 0.10261905 0.86200005 8679760
-0.28158668 0.10261905 0.86200005 8548948
-0.27994478 0.10261905 0.86200005 8418386
-0.27830288 0.10261905 0.86200005 8548432
-0.27666098 0.10261905 0.86200005 8680281
-0.27501905 0.10261905 0.86200005 8811107
-0.27337715 0.10261905 0.86200005 8942174
-0.27110475 0.10238095 0.86000001 8942424
-0.26946667 0.10238095 0.86000001 8943200
-0.26782858 0.10238095 0.86000001 8746856
-0.26619047 0.10238095 0.86000001 8549472
-0.26455238 0.10238095 0.86000001 8417881
-0.26291427 0.10238095 0.86000001 8286540
-0.26127619 0.10238095 0.86000001 8287039
-0.2596381 0.10238095 0.86000001 8352068
-0.25799999 0.10238095 0.86000001 8220234
-0.2563619 0.10238095 0.86000001 8087633
-0.2553162 0.10261905 0.86200005 7955801
-0.2530857 0.10238095 0.86000001 7824472
-0.25203237 0.10261905 0.86200005 7562328
-0.25039047 0.10261905 0.86200005 7297362
-0.24874857 0.10261905 0.86200005 6969421
-0.24796668 0.1029762 0.86500007 6705983
-0.24631906 0.1029762 0.86500007 6705201
-0.24523716 0.10321429 0.86700004 6704952
-0.24358572 0.10321429 0.86700004 6573375
-0.24193428 0.10321429 0.86700004 6442300
-0.24083714 0.10345238 0.86900002 6442298
-0.23918191 0.10345238 0.86900002 6441789
-0.23807335 0.10369048 0.87100005 6179135
-0.23695715 0.10392857 0.87300003 5916214
-0.23529428 0.10392857 0.87300003 5653548
-0.23416668 0.10416667 0.87500006 5392945
-0.23250002 0.10416667 0.87500006 5787958
-0.23215239 0.10476191 0.88000005 6179381
-0.2304762 0.10476191 0.88000005 6308916
-0.22932 0.105 0.88200003 6441522
-0.22764 0.105 0.88200003 5122609
-0.22596 0.105 0.88200003 3877671
-0.22478858 0.1052381 0.88400006 3812381
-0.22310477 0.1052381 0.88400006 3812378
-0.22142097 0.1052381 0.88400006 4010007
-0.21973716 0.1052381 0.88400006 4272410
-0.21928668 0.10583334 0.88900006 4469276
-0.21808288 0.10607143 0.89100003 4730917
-0.2176 0.10666667 0.89600003 4795950
-0.31166667 0.10280953 0.85000002 5518127
-0.31004763 0.10280953 0.85000002 5519146
-0.3091543 0.10305144 0.85200006 5521196
-0.30753145 0.10305144 0.85200006 5585455
-0.30662668 0.10329334 0.85400003 5720106
-0.30571431 0.10353524 0.85600007 5983013
-0.30408382 0.10353524 0.85600007 6311715
-0.30316001 0.10377715 0.85800004 6706209
-0.30152574 0.10377715 0.85800004 7166245
-0.30059046 0.10401905 0.86000001 7298346
-0.29895237 0.10401905 0.86000001 7496245
-0.29800573 0.10426096 0.86200005 7561536
-0.2963638 0.10426096 0.86200005 7626826
-0.2947219 0.10426096 0.86200005 7232852
-0.29308 0.10426096 0.86200005 6837579
-0.2914381 0.10426096 0.86200005 6706499
-0.2897962 0.10426096 0.86200005 6575433
-0.2881543 0.10426096 0.86200005 6640976
-0.2865124 0.10426096 0.86200005 6706512
-0.28487048 0.10426096 0.86200005 7562321
-0.28322858 0.10426096 0.86200005 8352849
-0.28158668 0.10426096 0.86200005 8352593
-0.27994478 0.10426096 0.86200005 8418380
-0.27830288 0.10426096 0.86200005 8549191
-0.27666098 0.10426096 0.86200005 8680278
-0.27501905 0.10426096 0.86200005 8680038
-0.27274287 0.10401905 0.86000001 8680036
-0.27110475 0.10401905 0.86000001 9007970
-0.26946667 0.10401905 0.86000001 9336164
-0.26782858 0.10401905 0.86000001 8943463
-0.26619047 0.10401905 0.86000001 8615005
-0.26455238 0.10401905 0.86000001 8417619
-0.26230285 0.10377715 0.85800004 8286544
-0.26127619 0.10401905 0.86000001 8483149
-0.2596381 0.10401905 0.86000001 8613705
-0.25799999 0.10401905 0.86000001 8351301
-0.2563619 0.10401905 0.86000001 8087629
-0.25472379 0.10401905 0.86000001 7891285
-0.2530857 0.10401905 0.86000001 7760729
-0.25144765 0.10401905 0.86000001 7494749
-0.24980953 0.10401905 0.86000001 7231061
-0.24874857 0.10426096 0.86200005 6969422
-0.24710667 0.10426096 0.86200005 6771533
-0.24631906 0.10462382 0.86500007 6771020
-0.24467145 0.10462382 0.86500007 6836294
-0.24302383 0.10462382 0.86500007 6639424
-0.24193428 0.10486572 0.86700004 6508090
-0.24028286 0.10486572 0.86700004 6573621
-0.23918191 0.10510762 0.86900002 6705203
-0.23752667 0.10510762 0.86900002 6376242
-0.2364143 0.10534953 0.87100005 6047769
-0.23529428 0.10559143 0.87300003 5851393
-0.23363143 0.10559143 0.87300003 5649935
-0.23250002 0.10583334 0.87500006 5714974
-0.23215239 0.1064381 0.88000005 5845541
-0.2304762 0.1064381 0.88000005 5849389
-0.22932 0.10668 0.88200003 5916716
-0.22764 0.10668 0.88200003 5057580
-0.22596 0.10668 0.88200003 4270881
-0.22478858 0.10692191 0.88400006 4074518
-0.22310477 0.10692191 0.88400006 3943701
-0.22217238 0.10728476 0.88700002 4074773
-0.22048286 0.10728476 0.88700002 4271640
-0.21978001 0.10776857 0.89100003 4401947
-0.21881714 0.10813144 0.89400005 4598049
-0.2171143 0.10813144 0.89400005 4664871
-0.31240001 0.10467429 0.85200006 5649442
-0.31077716 0.10467429 0.85200006 5649693
-0.3091543 0.10467429 0.85200006 5652009
-0.30825335 0.10492 0.85400003 5715765
-0.30662668 0.10492 0.85400003 5785139
-0.30571431 0.10516573 0.85600007 6115378
-0.30479431 0.10541143 0.85800004 6509362
-0.30316001 0.10541143 0.85800004 6969139
-0.30152574 0.10541143 0.85800004 7428664
-0.30059046 0.10565715 0.86000001 7495998
-0.29895237 0.10565715 0.86000001 7627072
-0.29731429 0.10565715 0.86000001 7298370
-0.29567617 0.10565715 0.86000001 7035969
-0.2947219 0.10590286 0.86200005 6773568
-0.29308 0.10590286 0.86200005 6510138
-0.2914381 0.10590286 0.86200005 6313269
-0.2897962 0.10590286 0.86200005 6182205
-0.2881543 0.10590286 0.86200005 6182213
-0.2865124 0.10590286 0.86200005 6182474
-0.28487048 0.10590286 0.86200005 7100239
-0.28322858 0.10590286 0.86200005 8089680
-0.28158668 0.10590286 0.86200005 8221265
-0.27994478 0.10590286 0.86200005 8418641
-0.27830288 0.10590286 0.86200005 8550481
-0.27666098 0.10590286 0.86200005 8681313
-0.27501905 0.10590286 0.86200005 8550001
-0.27274287 0.10565715 0.86000001 8484713
-0.27110475 0.10565715 0.86000001 9074786
-0.26946667 0.10565715 0.86000001 9729892
-0.26720572 0.10541143 0.85800004 9205606
-0.26557145 0.10541143 0.85800004 8681044
-0.26393715 0.10541143 0.85800004 8482627
-0.26230285 0.10541143 0.85800004 8352080
-0.26066861 0.10541143 0.85800004 8614237
-0.2596381 0.10565715 0.86000001 8941396
-0.25799999 0.10565715 0.86000001 8482378
-0.2563619 0.10565715 0.86000001 8089420
-0.25472379 0.10565715 0.86000001 7893071
-0.2530857 0.10565715 0.86000001 7694419
-0.25144765 0.10565715 0.86000001 7427416
-0.24980953 0.10565715 0.86000001 7165779
-0.24817145 0.10565715 0.86000001 6969678
-0.24710667 0.10590286 0.86200005 6837579
-0.24546477 0.10590286 0.86200005 6902857
-0.24467145 0.10627143 0.86500007 6968137
-0.24302383 0.10627143 0.86500007 6771530
-0.24137621 0.10627143 0.86500007 6638912
-0.24028286 0.10651714 0.86700004 6770486
-0.23863144 0.10651714 0.86700004 6966832
-0.23752667 0.10676286 0.86900002 6573354
-0.23587143 0.10676286 0.86900002 6244893
-0.23475525 0.10700858 0.87100005 6049553
-0.2330962 0.10700858 0.87100005 5915157
-0.23196857 0.10725429 0.87300003 5717274
-0.23162477 0.10786857 0.87800002 5586209
-0.2304762 0.10811429 0.88000005 5455399
-0.22932 0.10836001 0.88200003 5387816
-0.22764 0.10836001 0.88200003 4992809
-0.22647239 0.10860572 0.88400006 4665124
-0.22478858 0.10860572 0.88400006 4337438
-0.2238619 0.10897429 0.88700002 4074521
-0.22217238 0.10897429 0.88700002 4139284
-0.22098002 0.10922001 0.88900006 4271382
-0.21978001 0.10946572 0.89100003 4400920
-0.21808288 0.10946572 0.89100003 4532514
-0.2171143 0.10983429 0.89400005 4599340
-0.21541144 0.10983429 0.89400005 4664603
-0.31402287 0.10629715 0.85200006 5979163
-0.31240001 0.10629715 0.85200006 5848342
-0.31077716 0.10629715 0.85200006 5782801
-0.3091543 0.10629715 0.85200006 5783078
-0.30825335 0.10654666 0.85400003 5914940
-0.30662668 0.10654666 0.85400003 6046781
-0.30571431 0.1067962 0.85600007 6312767
-0.30408382 0.1067962 0.85600007 6641730
-0.30316001 0.10704572 0.85800004 7166021
-0.30152574 0.10704572 0.85800004 7625804
-0.30059046 0.10729524 0.86000001 7496019
-0.29895237 0.10729524 0.86000001 7366220
-0.29731429 0.10729524 0.86000001 6904133
-0.29567617 0.10729524 0.86000001 6444600
-0.2947219 0.10754476 0.86200005 6182700
-0.29308 0.10754476 0.86200005 5920809
-0.2914381 0.10754476 0.86200005 5787687
-0.2897962 0.10754476 0.86200005 5654833
-0.2881543 0.10754476 0.86200005 6050363
-0.2865124 0.10754476 0.86200005 6443076
-0.28487048 0.10754476 0.86200005 7232589
-0.28322858 0.10754476 0.86200005 8088911
-0.28158668 0.10754476 0.86200005 8287057
-0.27994478 0.10754476 0.86200005 8550230
-0.27830288 0.10754476 0.86200005 8681564
-0.27666098 0.10754476 0.86200005 8813676
-0.27438095 0.10729524 0.86000001 8746876
-0.27274287 0.10729524 0.86000001 8681071
-0.27047428 0.10704572 0.85800004 9009251
-0.26884001 0.10704572 0.85800004 9271908
-0.26720572 0.10704572 0.85800004 9008997
-0.26557145 0.10704572 0.85800004 8747084
-0.26332191 0.1067962 0.85600007 8548147
-0.26169145 0.1067962 0.85600007 8352080
-0.26066861 0.10704572 0.85800004 8482926
-0.2596381 0.10729524 0.86000001 8613983
-0.25799999 0.10729524 0.86000001 8286032
-0.25576574 0.10704572 0.85800004 8024652
-0.25472379 0.10729524 0.86000001 7760969
-0.2530857 0.10729524 0.86000001 7562574
-0.25144765 0.10729524 0.86000001 7428180
-0.24980953 0.10729524 0.86000001 7297617
-0.24817145 0.10729524 0.86000001 7166030
-0.24653335 0.10729524 0.86000001 7034698
-0.24546477 0.10754476 0.86200005 6903623
-0.24382286 0.10754476 0.86200005 6838093
-0.24218096 0.10754476 0.86200005 6574932
-0.24053906 0.10754476 0.86200005 6376774
-0.2397286 0.10791906 0.86500007 6310456
-0.23863144 0.10816857 0.86700004 6244141
-0.23698001 0.10816857 0.86700004 6047266
-0.23587143 0.1084181 0.86900002 5916193
-0.23421618 0.1084181 0.86900002 5916449
-0.2330962 0.10866762 0.87100005 5916700
-0.23143716 0.10866762 0.87100005 5784599
-0.23083335 0.10916667 0.87500006 5586972
-0.22995239 0.10954095 0.87800002 5520930
-0.22880001 0.10979048 0.88000005 5452324
-0.22764 0.11004001 0.88200003 5124391
-0.22647239 0.11028953 0.88400006 4861991
-0.22478858 0.11028953 0.88400006 4533799
-0.2238619 0.11066382 0.88700002 4271133
-0.22217238 0.11066382 0.88700002 4205588
-0.22098002 0.11091334 0.88900006 4205844
-0.21978001 0.11116286 0.89100003 4270869
-0.21808288 0.11116286 0.89100003 4401443
-0.21638571 0.11116286 0.89100003 4533809
-0.31402287 0.10792001 0.85200006 6243360
-0.31240001 0.10792001 0.85200006 6046495
-0.31150666 0.10817333 0.85400003 5980703
-0.30988002 0.10817333 0.85400003 5980970
-0.30825335 0.10817333 0.85400003 6118197
-0.30662668 0.10817333 0.85400003 6314302
-0.30571431 0.10842668 0.85600007 6575943
-0.30479431 0.10868 0.85800004 6838339
-0.30316001 0.10868 0.85800004 7363136
-0.30152574 0.10868 0.85800004 7888196
-0.30059046 0.10893334 0.86000001 7496008
-0.29964763 0.10918667 0.86200005 7167298
-0.29800573 0.10918667 0.86200005 6509885
-0.2963638 0.10918667 0.86200005 5917239
-0.2947219 0.10918667 0.86200005 5652530
-0.29308 0.10918667 0.86200005 5390627
-0.2914381 0.10918667 0.86200005 5260052
-0.2897962 0.10918667 0.86200005 5131560
-0.2881543 0.10918667 0.86200005 5918525
-0.2865124 0.10918667 0.86200005 6705463
-0.28420952 0.10893334 0.86000001 7365169
-0.28322858 0.10918667 0.86200005 8087878
-0.28158668 0.10918667 0.86200005 8353115
-0.27929524 0.10893334 0.86000001 8681052
-0.27765715 0.10893334 0.86000001 8812637
-0.27601904 0.10893334 0.86000001 9009251
-0.27438095 0.10893334 0.86000001 8943720
-0.27274287 0.10893334 0.86000001 8943719
-0.27047428 0.10868 0.85800004 8878438
-0.26884001 0.10868 0.85800004 8878188
-0.26658288 0.10842668 0.85600007 8878194
-0.26495239 0.10842668 0.85600007 8876893
-0.26332191 0.10842668 0.85600007 8613705
-0.26169145 0.10842668 0.85600007 8416599
-0.26006097 0.10842668 0.85600007 8350821
-0.25903431 0.10868 0.85800004 8285275
-0.25740001 0.10868 0.85800004 8088657
-0.25576574 0.10868 0.85800004 7957071
-0.25413144 0.10868 0.85800004 7694413
-0.25249714 0.10868 0.85800004 7496524
-0.25144765 0.10893334 0.86000001 7429196
-0.24980953 0.10893334 0.86000001 7428939
-0.24817145 0.10893334 0.86000001 7297098
-0.24653335 0.10893334 0.86000001 7231300
-0.24489525 0.10893334 0.86000001 6968895
-0.24382286 0.10918667 0.86200005 6706496
-0.24218096 0.10918667 0.86200005 6378562
-0.24053906 0.10918667 0.86200005 6115387
-0.2397286 0.10956667 0.86500007 5851189
-0.23808096 0.10956667 0.86500007 5588524
-0.23698001 0.10982 0.86700004 5588260
-0.23532858 0.10982 0.86700004 5588009
-0.23421618 0.11007334 0.86900002 5783343
-0.23256096 0.11007334 0.86900002 5981477
-0.23143716 0.11032668 0.87100005 5785372
-0.22977811 0.11032668 0.87100005 5652765
-0.22995239 0.11121333 0.87800002 5586462
-0.22880001 0.11146668 0.88000005 5518617
-0.22712381 0.11146668 0.88000005 5256212
-0.22596 0.11172 0.88200003 5059611
-0.22478858 0.11197334 0.88400006 4797473
-0.22310477 0.11197334 0.88400006 4535065
-0.22217238 0.11235333 0.88700002 4338192
-0.22098002 0.11260667 0.88900006 4140050
-0.21928668 0.11260667 0.88900006 4205589
-0.21808288 0.11286 0.89100003 4271390
-0.31240001 0.10954286 0.85200006 5849641
-0.31150666 0.1098 0.85400003 5981486
-0.30988002 0.1098 0.85400003 6047790
-0.30825335 0.1098 0.85400003 6246703
-0.30734479 0.11005715 0.85600007 6378559
-0.30642858 0.11031429 0.85800004 6575183
-0.30479431 0.11031429 0.85800004 6837317
-0.30386665 0.11057143 0.86000001 7168060
-0.30222857 0.11057143 0.86000001 7563324
-0.30059046 0.11057143 0.86000001 7036477
-0.29964763 0.11082857 0.86200005 6576697
-0.29800573 0.11082857 0.86200005 5720117
-0.2963638 0.11082857 0.86200005 4865847
-0.2947219 0.11082857 0.86200005 5127993
-0.29308 0.11082857 0.86200005 5453085
-0.2914381 0.11082857 0.86200005 5458945
-0.2897962 0.11082857 0.86200005 5460256
-0.28748572 0.11057143 0.86000001 6050367
-0.2865124 0.11082857 0.86200005 6705962
-0.28420952 0.11057143 0.86000001 7299605
-0.28322858 0.11082857 0.86200005 7955773
-0.28093335 0.11057143 0.86000001 8287077
-0.27929524 0.11057143 0.86000001 8614754
-0.27765715 0.11057143 0.86000001 8811615
-0.27601904 0.11057143 0.86000001 9074266
-0.27438095 0.11057143 0.86000001 9008981
-0.27210858 0.11031429 0.85800004 8943711
-0.26984385 0.11005715 0.85600007 8943722
-0.26821336 0.11005715 0.85600007 8941684
-0.26658288 0.11005715 0.85600007 8878975
-0.26495239 0.11005715 0.85600007 8880751
-0.26332191 0.11005715 0.85600007 8678752
-0.26169145 0.11005715 0.85600007 8547166
-0.26006097 0.11005715 0.85600007 8415837
-0.25903431 0.11031429 0.85800004 8284503
-0.25740001 0.11031429 0.85800004 8350546
-0.25576574 0.11031429 0.85800004 8350289
-0.25413144 0.11031429 0.85800004 8087121
-0.25249714 0.11031429 0.85800004 7758411
-0.25144765 0.11057143 0.86000001 7626565
-0.24980953 0.11057143 0.86000001 7560262
-0.24817145 0.11057143 0.86000001 7362887
-0.24653335 0.11057143 0.86000001 7231295
-0.24489525 0.11057143 0.86000001 6968631
-0.24325714 0.11057143 0.86000001 6640180
-0.24161904 0.11057143 0.86000001 6247217
-0.24053906 0.11082857 0.86200005 5788465
-0.23889714 0.11082857 0.86200005 5257010
-0.23725525 0.11082857 0.86200005 4730924
-0.23698001 0.11147143 0.86700004 4602151
-0.23587143 0.11172857 0.86900002 4538930
-0.23421618 0.11172857 0.86900002 5390909
-0.23256096 0.11172857 0.86900002 6242863
-0.23143716 0.11198572 0.87100005 5980706
-0.23030573 0.11224286 0.87300003 5718558
-0.22916667 0.1125 0.87500006 5586458
-0.22827999 0.11288572 0.87800002 5519374
-0.22712381 0.11314286 0.88000005 5322498
-0.22544762 0.11314286 0.88000005 5124367
-0.22428 0.1134 0.88200003 4862748
-0.22260001 0.1134 0.88200003 4600596
-0.22142097 0.11365715 0.88400006 4337421
-0.22048286 0.11404286 0.88700002 4008977
-0.21928668 0.11430001 0.88900006 4139541
-0.21759336 0.11430001 0.88900006 4268569
-0.31150666 0.11142667 0.85400003 5916721
-0.30988002 0.11142667 0.85400003 6178864
-0.30897525 0.11168763 0.85600007 6311728
-0.30734479 0.11168763 0.85600007 6509629
-0.30642858 0.11194857 0.85800004 6640970
-0.30479431 0.11194857 0.85800004 6836545
-0.30386665 0.11220952 0.86000001 7038521
-0.30222857 0.11220952 0.86000001 7234872
-0.30128953 0.11247049 0.86200005 6642743
-0.29964763 0.11247049 0.86200005 6049322
-0.29800573 0.11247049 0.86200005 4930590
-0.2963638 0.11247049 0.86200005 3816752
-0.2947219 0.11247049 0.86200005 4668995
-0.29308 0.11247049 0.86200005 5589296
-0.2914381 0.11247049 0.86200005 5657885
-0.28912383 0.11220952 0.86000001 5788979
-0.28748572 0.11220952 0.86000001 6247753
-0.28584763 0.11220952 0.86000001 6706491
-0.28420952 0.11220952 0.86000001 7299628
-0.28322858 0.11247049 0.86200005 7891273
-0.28093335 0.11220952 0.86000001 8221030
-0.27929524 0.11220952 0.86000001 8614500
-0.27765715 0.11220952 0.86000001 8877154
-0.27601904 0.11220952 0.86000001 9139559
-0.27438095 0.11220952 0.86000001 9008747
-0.27210858 0.11194857 0.85800004 8943723
-0.26984385 0.11168763 0.85600007 8943466
-0.26821336 0.11168763 0.85600007 9010029
-0.26658288 0.11168763 0.85600007 8945520
-0.26495239 0.11168763 0.85600007 8945256
-0.26332191 0.11168763 0.85600007 8809568
-0.26169145 0.11168763 0.85600007 8679006
-0.26006097 0.11168763 0.85600007 8483164
-0.25903431 0.11194857 0.85800004 8351575
-0.25740001 0.11194857 0.85800004 8547666
-0.25516954 0.11168763 0.85600007 8808535
-0.25353909 0.11168763 0.85600007 8414556
-0.25249714 0.11194857 0.85800004 8086100
-0.25086287 0.11194857 0.85800004 7889996
-0.24922857 0.11194857 0.85800004 7691080
-0.24759428 0.11194857 0.85800004 7494212
-0.24596003 0.11194857 0.85800004 7297084
-0.24489525 0.11220952 0.86000001 6968629
-0.24325714 0.11220952 0.86000001 6640696
-0.24161904 0.11220952 0.86000001 6050620
-0.24053906 0.11247049 0.86200005 5526069
-0.23889714 0.11247049 0.86200005 4663086
-0.23725525 0.11247049 0.86200005 3873838
-0.23643336 0.11286192 0.86500007 3674414
-0.23532858 0.11312287 0.86700004 3549484
-0.23367715 0.11312287 0.86700004 4998698
-0.23256096 0.11338381 0.86900002 6505509
-0.23143716 0.11364476 0.87100005 6112033
-0.23030573 0.11390572 0.87300003 5783838
-0.22916667 0.11416667 0.87500006 5652252
-0.22827999 0.1145581 0.87800002 5585944
-0.22660762 0.1145581 0.87800002 5388821
-0.22493525 0.1145581 0.87800002 5189916
-0.22377145 0.11481905 0.88000005 4928290
-0.22209525 0.11481905 0.88000005 4731157
-0.22092 0.11508001 0.88200003 4336648
-0.21973716 0.11534096 0.88400006 3943440
-0.21879333 0.11573239 0.88700002 4073752
-0.21759336 0.11599334 0.88900006 4268574
-0.30988002 0.11305334 0.85400003 5785907
-0.31041905 0.11384762 0.86000001 5918257
-0.30878094 0.11384762 0.86000001 6050875
-0.30714285 0.11384762 0.86000001 6246725
-0.30550477 0.11384762 0.86000001 6508093
-0.30386665 0.11384762 0.86000001 6708278
-0.30222857 0.11384762 0.86000001 6906675
-0.30128953 0.11411238 0.86200005 6444081
-0.29964763 0.11411238 0.86200005 5980956
-0.29800573 0.11411238 0.86200005 5324551
-0.2963638 0.11411238 0.86200005 4731178
-0.29403809 0.11384762 0.86000001 5261134
-0.2924 0.11384762 0.86000001 5789507
-0.29076192 0.11384762 0.86000001 5854521
-0.28912383 0.11384762 0.86000001 5919814
-0.28748572 0.11384762 0.86000001 6181972
-0.28584763 0.11384762 0.86000001 6445132
-0.28420952 0.11384762 0.86000001 6971204
-0.28257143 0.11384762 0.86000001 7501141
-0.28093335 0.11384762 0.86000001 8157031
-0.27929524 0.11384762 0.86000001 8812902
-0.27765715 0.11384762 0.86000001 8943974
-0.27601904 0.11384762 0.86000001 9009780
-0.27438095 0.11384762 0.86000001 9009538
-0.2714743 0.1133181 0.85600007 9009270
-0.26984385 0.1133181 0.85600007 8943723
-0.26821336 0.1133181 0.85600007 8943974
-0.26658288 0.1133181 0.85600007 8878433
-0.26495239 0.1133181 0.85600007 8878688
-0.26332191 0.1133181 0.85600007 8812640
-0.26169145 0.1133181 0.85600007 8812125
-0.26006097 0.1133181 0.85600007 8484699
-0.25843048 0.1133181 0.85600007 8222806
-0.25680003 0.1133181 0.85600007 8349522
-0.25516954 0.1133181 0.85600007 8480348
-0.25353909 0.1133181 0.85600007 8283495
-0.2519086 0.1133181 0.85600007 8151645
-0.25027812 0.1133181 0.85600007 7955028
-0.24864763 0.1133181 0.85600007 7821898
-0.24759428 0.11358286 0.85800004 7559745
-0.24596003 0.11358286 0.85800004 7362874
-0.24489525 0.11384762 0.86000001 7100211
-0.24325714 0.11384762 0.86000001 6837821
-0.24161904 0.11384762 0.86000001 5722951
-0.24053906 0.11411238 0.86200005 4608312
-0.23889714 0.11411238 0.86200005 3938858
-0.23725525 0.11411238 0.86200005 3279152
-0.23643336 0.11450953 0.86500007 3018294
-0.23478574 0.11450953 0.86500007 2756902
-0.2331381 0.11450953 0.86500007 4539415
-0.23202573 0.11477429 0.86700004 6246683
-0.23143716 0.11530381 0.87100005 6047008
-0.22977811 0.11530381 0.87100005 5847583
-0.22864287 0.11556857 0.87300003 5717278
-0.22827999 0.11623047 0.87800002 5586979
-0.22660762 0.11623047 0.87800002 5388585
-0.22493525 0.11623047 0.87800002 5189929
-0.22326286 0.11623047 0.87800002 4862249
-0.22209525 0.11649524 0.88000005 4599574
-0.22041906 0.11649524 0.88000005 4336644
-0.21973716 0.11702476 0.88400006 4074767
-0.21928668 0.11768667 0.88900006 4072731
-0.21759336 0.11768667 0.88900006 4137507
-0.30878094 0.11548571 0.86000001 5585967
-0.30714285 0.11548571 0.86000001 5913413
-0.30550477 0.11548571 0.86000001 6244927
-0.30386665 0.11548571 0.86000001 6378297
-0.30222857 0.11548571 0.86000001 6573881
-0.30128953 0.11575429 0.86200005 6245434
-0.29964763 0.11575429 0.86200005 5980970
-0.29800573 0.11575429 0.86200005 5784345
-0.2963638 0.11575429 0.86200005 5655085
-0.29403809 0.11548571 0.86000001 5787970
-0.2924 0.11548571 0.86000001 5984577
-0.29076192 0.11548571 0.86000001 5984576
-0.28912383 0.11548571 0.86000001 6050379
-0.28748572 0.11548571 0.86000001 6116182
-0.28584763 0.11548571 0.86000001 6248021
-0.28420952 0.11548571 0.86000001 6708309
-0.28257143 0.11548571 0.86000001 7173211
-0.28093335 0.11548571 0.86000001 8093794
-0.27929524 0.11548571 0.86000001 9074533
-0.27701142 0.11521715 0.85800004 9009000
-0.27601904 0.11548571 0.86000001 8943728
-0.27438095 0.11548571 0.86000001 9009528
-0.27210858 0.11521715 0.85800004 9140335
-0.26984385 0.11494858 0.85600007 9009255
-0.26821336 0.11494858 0.85600007 8877924
-0.26720572 0.11521715 0.85800004 8811873
-0.26557145 0.11521715 0.85800004 8812126
-0.26332191 0.11494858 0.85600007 8878172
-0.26230285 0.11521715 0.85800004 9008475
-0.26006097 0.11494858 0.85600007 8551002
-0.25843048 0.11494858 0.85600007 8088662
-0.25680003 0.11494858 0.85600007 8085843
-0.25516954 0.11494858 0.85600007 8152663
-0.25353909 0.11494858 0.85600007 8152668
-0.2519086 0.11494858 0.85600007 8217434
-0.25027812 0.11494858 0.85600007 8085848
-0.24864763 0.11494858 0.85600007 7952717
-0.24759428 0.11521715 0.85800004 7691074
-0.24596003 0.11521715 0.85800004 7428411
-0.24489525 0.11548571 0.86000001 7232820
-0.24325714 0.11548571 0.86000001 7100219
-0.24161904 0.11548571 0.86000001 5392962
-0.24053906 0.11575429 0.86200005 3688506
-0.23889714 0.11575429 0.86200005 3149363
-0.23808096 0.11615715 0.86500007 2690344
-0.23698001 0.11642572 0.86700004 2362398
-0.23532858 0.11642572 0.86700004 2034969
-0.23367715 0.11642572 0.86700004 4014869
-0.23202573 0.11642572 0.86700004 6047015
-0.23090571 0.11669429 0.86900002 5982266
-0.22977811 0.11696286 0.87100005 5914417
-0.22811906 0.11696286 0.87100005 5782312
-0.22750001 0.11750001 0.87500006 5652262
-0.22583334 0.11750001 0.87500006 5388325
-0.22416668 0.11750001 0.87500006 5190691
-0.22326286 0.11790286 0.87800002 4796705
-0.22159047 0.11790286 0.87800002 4468756
-0.22041906 0.11817144 0.88000005 4336904
-0.21924001 0.11844 0.88200003 4205585
-0.21879333 0.11911143 0.88700002 4071962
-0.21759336 0.11938 0.88900006 4005921
-0.30892861 0.11780477 0.86500007 5652037
-0.30728096 0.11780477 0.86500007 6047552
-0.30457336 0.1173962 0.86200005 6246460
-0.30293143 0.1173962 0.86200005 6509120
-0.30128953 0.1173962 0.86200005 6244932
-0.29895237 0.11712381 0.86000001 6046520
-0.29731429 0.11712381 0.86000001 5916460
-0.29567617 0.11712381 0.86000001 5786673
-0.29403809 0.11712381 0.86000001 6049334
-0.2924 0.11712381 0.86000001 6312255
-0.29076192 0.11712381 0.86000001 6181192
-0.28912383 0.11712381 0.86000001 6050128
-0.28748572 0.11712381 0.86000001 5985112
-0.28584763 0.11712381 0.86000001 5985375
-0.28420952 0.11712381 0.86000001 6247783
-0.28257143 0.11712381 0.86000001 6517858
-0.28093335 0.11712381 0.86000001 7828573
-0.27929524 0.11712381 0.86000001 9139556
-0.27701142 0.11685143 0.85800004 9074027
-0.27537715 0.11685143 0.85800004 8941932
-0.27374288 0.11685143 0.85800004 9139822
-0.27210858 0.11685143 0.85800004 9336937
-0.26984385 0.11657906 0.85600007 9074788
-0.26821336 0.11657906 0.85600007 8877667
-0.26658288 0.11657906 0.85600007 8812130
-0.26557145 0.11685143 0.85800004 8746589
-0.26332191 0.11657906 0.85600007 8681048
-0.26169145 0.11657906 0.85600007 8615256
-0.26006097 0.11657906 0.85600007 8352345
-0.25843048 0.11657906 0.85600007 8085590
-0.25680003 0.11657906 0.85600007 8217428
-0.25516954 0.11657906 0.85600007 8349522
-0.25353909 0.11657906 0.85600007 7563601
-0.2519086 0.11657906 0.85600007 6777686
-0.25027812 0.11657906 0.85600007 6775132
-0.24864763 0.11657906 0.85600007 6707280
-0.24759428 0.11685143 0.85800004 6969412
-0.24596003 0.11685143 0.85800004 7166268
-0.24432573 0.11685143 0.85800004 7034933
-0.24161904 0.11712381 0.86000001 5260862
-0.24053906 0.1173962 0.86200005 3620669
-0.23889714 0.1173962 0.86200005 2758460
-0.23725525 0.1173962 0.86200005 1904161
-0.23643336 0.11780477 0.86500007 2099974
-0.23532858 0.11807714 0.86700004 2296077
-0.23367715 0.11807714 0.86700004 3946772
-0.23202573 0.11807714 0.86700004 5521204
-0.23090571 0.11834953 0.86900002 5916244
-0.22977811 0.11862192 0.87100005 6243651
-0.22811906 0.11862192 0.87100005 5913650
-0.22698 0.11889429 0.87300003 5586473
-0.22531715 0.11889429 0.87300003 5323041
-0.22416668 0.11916667 0.87500006 5126685
-0.22250001 0.11916667 0.87500006 4797466
-0.22159047 0.11957524 0.87800002 4534547
-0.22041906 0.11984763 0.88000005 4337420
-0.21924001 0.12012 0.88200003 4205587
-0.21805334 0.12039239 0.88400006 4139802
-0.21636954 0.12039239 0.88400006 4008479
-0.30728096 0.11945239 0.86500007 5850939
-0.30563337 0.11945239 0.86500007 6114615
-0.30398574 0.11945239 0.86500007 6441783
-0.30233809 0.11945239 0.86500007 6310199
-0.29964763 0.1190381 0.86200005 6179374
-0.29800573 0.1190381 0.86200005 6048805
-0.2963638 0.1190381 0.86200005 5983012
-0.29403809 0.1187619 0.86000001 6310691
-0.2924 0.1187619 0.86000001 6639158
